# .PCD v0.7 - Point Cloud Data file format
VERSION 0.7
FIELDS x y z
SIZE 4 4 4
TYPE F F F
COUNT 1 1 1
WIDTH 1519
HEIGHT 1
VIEWPOINT 0 0 0 1 0 0 0
POINTS 1519
DATA ascii
11.158155 -0.033107013 -0.20014389
11.118015 -0.065976404 -0.19942653
11.107756 -0.10081355 -0.19924718
11.037424 -0.13292761 -0.1979918
10.946435 -0.1987152 -0.19637774
10.93576 -0.23289053 -0.1961984
10.87505 -0.2638813 -0.19512236
10.834188 -0.29694915 -0.194405
10.78329 -0.32757553 -0.1935083
10.732244 -0.3597756 -0.19261159
10.711145 -0.39088795 -0.1922529
10.689883 -0.42374393 -0.19189423
10.638554 -0.45518804 -0.19099753
10.587132 -0.48631379 -0.19010082
10.565579 -0.51859146 -0.18974215
10.533943 -0.55021703 -0.18920413
10.502111 -0.58348185 -0.18866611
10.44034 -0.61295629 -0.18759006
10.418404 -0.64451778 -0.18723138
10.366441 -0.6740014 -0.18633467
10.324371 -0.70384502 -0.18561731
10.29219 -0.7341423 -0.18507929
10.269892 -0.76498717 -0.18472062
10.257469 -0.79647309 -0.18454129
10.139939 -0.88356328 -0.18256852
10.137114 -0.91541439 -0.18256852
10.064503 -0.94074297 -0.18131314
9.792882 -1.1348071 -0.17682964
9.7892685 -1.1655668 -0.17682964
9.2445564 -1.5188249 -0.16804196
9.2298784 -1.546208 -0.16786261
9.2446871 -1.5785627 -0.16822131
9.2593832 -1.6110256 -0.16857998
5.4333167 -4.6766906 -0.12858707
5.4110403 -4.6871901 -0.12840773
5.3887515 -4.6975961 -0.12822838
5.3664513 -4.7079086 -0.12804905
5.3516345 -4.7247448 -0.12804905
5.3292899 -4.7348928 -0.12786971
5.3069353 -4.7449479 -0.12769037
5.2845697 -4.7549086 -0.12751102
5.2696056 -4.7714872 -0.12751102
5.2545896 -4.7880187 -0.12751102
5.2395215 -4.804503 -0.12751102
5.224402 -4.8209395 -0.12751102
5.2019048 -4.8305254 -0.12733169
5.1867032 -4.8468437 -0.12733169
5.1641674 -4.8562646 -0.12715234
5.1416235 -4.865592 -0.126973
5.1335526 -4.8886161 -0.12715234
5.1109505 -4.8978019 -0.126973
5.0883412 -4.9068933 -0.12679367
5.0729003 -4.9228549 -0.12679367
5.0574098 -4.9387674 -0.12679367
5.0347385 -4.9476233 -0.12661433
5.0111957 -4.9572601 -0.12643498
4.9955974 -4.9729791 -0.12643498
4.979949 -4.9886489 -0.12643498
4.9642525 -5.0042691 -0.12643498
4.9414873 -5.0127201 -0.12625565
4.9327121 -5.0353613 -0.12643498
4.9098945 -5.0436687 -0.12625565
4.9009767 -5.0662551 -0.12643498
4.8919659 -5.0888348 -0.12661433
4.8759546 -5.1041784 -0.12661433
4.8667789 -5.1267223 -0.12679367
7.0163546 -3.2345839 1.4983766
6.9705491 -3.2400584 1.4907609
6.931416 -3.3001778 1.488857
6.8735347 -3.352447 1.4831454
6.7525392 -3.3976502 1.4660101
6.7336721 -3.4132318 1.4641062
6.7141733 -3.4299033 1.4622023
6.6946363 -3.446486 1.4602983
6.6750622 -3.46298 1.4583945
6.6728497 -3.4884815 1.4602983
6.6358004 -3.4957013 1.4545866
6.6427436 -3.5245769 1.4583945
6.5970078 -3.5269144 1.4507788
6.6038017 -3.5557809 1.4545866
6.5574613 -3.5589292 1.4469711
6.5554867 -3.5830781 1.448875
6.5355988 -3.5989196 1.4469711
6.512857 -3.6399131 1.4469711
6.50139 -3.6603556 1.4469711
6.4642406 -3.6662328 1.4412593
6.4526906 -3.6865225 1.4412593
6.4240599 -3.6969831 1.4374515
6.4039211 -3.7122228 1.4355476
6.383749 -3.7273731 1.4336436
6.3635459 -3.7424333 1.4317398
6.3433104 -3.7574031 1.4298358
6.3399057 -3.7823424 1.4317398
6.311162 -3.792129 1.4279319
6.2992177 -3.8119373 1.4279319
6.2045569 -3.835005 1.4146045
6.1758094 -3.8441029 1.4107968
6.1553841 -3.8582718 1.4088928
6.1425557 -3.8786626 1.4088928
6.1220565 -3.8926735 1.406989
6.1091142 -3.9129534 1.406989
6.0892258 -3.9257431 1.405085
6.0686293 -3.9395077 1.4031811
6.0644403 -3.9639244 1.405085
6.0355558 -3.9721632 1.4012772
6.0066805 -3.9802594 1.3974694
5.9941463 -3.9991102 1.3974694
5.9734039 -4.0124483 1.3955655
5.9526372 -4.0256944 1.3936615
5.9318461 -4.0388503 1.3917577
5.942709 -4.0751543 1.3974694
5.9298768 -4.0938044 1.3974694
5.8928032 -4.0956049 1.3917577
5.8749795 -4.1382027 1.3936615
5.8619499 -4.1566391 1.3936615
5.8488626 -4.175034 1.3936615
5.8066063 -4.2001939 1.3898537
5.7114654 -4.2139335 1.3765264
5.6903176 -4.2260027 1.3746225
5.7006016 -4.2614923 1.3803343
5.6658878 -4.2912984 1.3784302
5.6289568 -4.2912221 1.3727186
5.6310248 -4.320837 1.3765264
5.603765 -4.3561325 1.3765264
5.5162997 -4.3721652 1.365103
5.5025368 -4.3894739 1.365103
5.4963751 -4.4128847 1.3670068
5.4901204 -4.4363003 1.3689108
5.4685397 -4.4473324 1.3670068
5.4545412 -4.4644899 1.3670068
5.4339399 -4.5049396 1.3689108
5.4122224 -4.5156989 1.3670068
5.3679547 -4.5378795 1.363199
5.2803259 -4.5498195 1.3517755
5.2734227 -4.5728173 1.3536794
5.2442374 -4.5764523 1.3498716
5.2298346 -4.5929046 1.3498716
5.2080235 -4.6028113 1.3479677
5.1935382 -4.6191497 1.3479677
5.1790009 -4.6354427 1.3479677
5.1571178 -4.6451201 1.3460639
5.1424994 -4.6612988 1.3460639
5.1278305 -4.6774311 1.3460639
5.1058784 -4.6868796 1.34416
5.0911288 -4.7028971 1.34416
5.069139 -4.712184 1.3422559
5.0543103 -4.7280855 1.3422559
5.0394316 -4.7439408 1.3422559
5.0173764 -4.7529979 1.3403522
5.0095253 -4.7755103 1.3422559
4.9874134 -4.7844291 1.3403522
4.9652953 -4.7932553 1.3384482
4.950212 -4.8088307 1.3384482
4.9350805 -4.8243585 1.3384482
4.9120579 -4.8338118 1.3365443
4.8968482 -4.8492193 1.3365443
4.8815894 -4.8645792 1.3365443
4.894011 -4.9076967 1.34416
4.8716583 -4.9160748 1.3422559
4.8561907 -4.9313545 1.3422559
4.8406744 -4.9465866 1.3422559
4.8182659 -4.9547319 1.3403522
4.8026767 -4.9698443 1.3403522
4.793839 -4.9919887 1.3422559
4.7645779 -4.9928198 1.3384482
4.7556243 -5.0148873 1.3403522
4.7398462 -5.0298028 1.3403522
4.7240214 -5.0446682 1.3403522
4.7014618 -5.0522976 1.3384482
4.6855664 -5.0670424 1.3384482
4.6753788 -5.0897827 1.3403522
4.6527476 -5.0971947 1.3384482
4.6301155 -5.1045156 1.3365443
4.6206293 -5.126328 1.3384482
4.6110511 -5.1481318 1.3403522
4.5883284 -5.1552587 1.3384482
4.5721102 -5.1696482 1.3384482
4.5623274 -5.1913605 1.3403522
4.5395384 -5.1982732 1.3384482
4.5296187 -5.219924 1.3403522
4.5067873 -5.2266932 1.3384482
4.4903445 -5.2408261 1.3384482
4.4738579 -5.2549071 1.3384482
4.3898363 -5.3252969 1.3384482
4.3394523 -5.3664336 1.3384482
4.3225718 -5.3800397 1.3384482
4.2995243 -5.3859205 1.3365443
4.2947836 -5.4147844 1.3403522
4.2777514 -5.4282498 1.3403522
4.0167747 -5.5878754 1.3346404
3.9331253 -5.6590257 1.3365443
3.9153275 -5.6713543 1.3365443
3.897491 -5.6836267 1.3365443
3.885143 -5.7039561 1.3384482
3.867204 -5.7161336 1.3384482
3.8502269 -5.7275829 1.3384482
3.8322146 -5.7396502 1.3384482
3.8131599 -5.752327 1.3384482
3.5583231 -6.0048299 1.3536794
3.524507 -5.9905953 1.3479677
3.4957664 -5.9846845 1.34416
3.4781787 -6.0855508 1.3593912
3.4638882 -6.1049857 1.3612951
9.0591507 -1.5827043 1.4501454
8.9649563 -1.7134004 1.439242
8.9401369 -1.7377865 1.4361268
8.9055605 -1.7601181 1.4314539
8.8803072 -1.7857457 1.4283388
8.8456192 -1.8077017 1.4236658
8.8112011 -1.8279197 1.418993
8.7860842 -1.8515183 1.4158778
8.7509184 -1.8744369 1.4112048
8.7160301 -1.8956217 1.4065319
8.6907406 -1.9187356 1.4034169
8.6653919 -1.9417092 1.4003015
8.6399851 -1.9645423 1.3971863
8.6048946 -1.9850147 1.3925134
8.57903 -2.0090342 1.3893982
8.5438433 -2.0291286 1.3847252
8.5182199 -2.0513346 1.38161
8.5021372 -2.075742 1.3800524
8.3765163 -2.130477 1.3629186
8.3274155 -2.2017531 1.3582458
8.291832 -2.2202384 1.3535728
8.265749 -2.2411075 1.3504577
8.2491417 -2.2644491 1.3489
8.2130365 -2.2838526 1.3442272
8.1963129 -2.3069673 1.3426695
8.1605244 -2.3245864 1.3379967
8.1341982 -2.3447402 1.3348814
8.1078262 -2.3647513 1.3317662
8.0814085 -2.3846197 1.328651
8.0549479 -2.404346 1.3255358
8.028018 -2.4253304 1.3224205
8.0109119 -2.4476528 1.3208628
7.9843078 -2.4669757 1.3177476
7.9859471 -2.4949927 1.3193053
7.949811 -2.511143 1.3146323
7.9324727 -2.5331004 1.3130746
7.896275 -2.5489056 1.3084018
7.8788376 -2.570636 1.3068441
7.8515091 -2.5905588 1.3037289
7.8152199 -2.605839 1.2990562
7.7238851 -2.629425 1.2865952
7.642837 -2.6824751 1.2772495
7.5893488 -2.7443099 1.2725766
7.5436659 -2.7830052 1.2679037
7.5263367 -2.8574843 1.2694613
7.4988756 -2.8740444 1.2663461
7.480597 -2.8940246 1.2647885
7.4163156 -2.9228597 1.2570003
7.3979177 -2.9424934 1.2554426
7.2964349 -3.0088632 1.2445394
7.3051867 -3.0393598 1.2476547
7.2120919 -3.0821707 1.2367513
7.1744661 -3.1195467 1.233636
7.1555843 -3.1381032 1.2320784
7.1366563 -3.1565721 1.2305207
7.1176834 -3.1749532 1.2289631
7.0896573 -3.1891932 1.225848
7.0245647 -3.2131314 1.2180598
7.0413456 -3.2475951 1.2227327
6.9766536 -3.2695887 1.2149446
6.9663477 -3.2914901 1.2149446
6.9381371 -3.3048632 1.2118293
6.9188156 -3.3223681 1.2102717
6.8994532 -3.3397837 1.2087141
6.8800492 -3.357111 1.2071565
6.8045163 -3.3985398 1.1993684
6.7849827 -3.4154589 1.1978108
6.7660089 -3.4311075 1.1962531
6.7376051 -3.443356 1.1931379
6.7179723 -3.4599829 1.1915802
6.7246041 -3.4901717 1.1946955
6.6763263 -3.5185385 1.1900226
6.6309571 -3.5198069 1.1837921
6.5801282 -3.5727179 1.1806769
6.569499 -3.5922258 1.1806769
6.5668325 -3.6176133 1.1822345
6.5381618 -3.6286383 1.1791192
6.5267296 -3.6491609 1.1791192
6.4894133 -3.6551044 1.1744465
6.4693069 -3.6705987 1.1728888
6.4320159 -3.6761997 1.168216
6.420435 -3.6963887 1.168216
6.4087906 -3.7165406 1.168216
6.3885536 -3.7316737 1.1666583
6.3682852 -3.7467165 1.1651007
6.356483 -3.7667046 1.1651007
6.3361359 -3.7815928 1.1635431
6.307292 -3.791302 1.1604278
6.2869005 -3.8059828 1.1588702
6.2749124 -3.8257148 1.1588702
6.2712803 -3.8505774 1.1604278
6.250751 -3.8650653 1.1588702
6.2385778 -3.8846834 1.1588702
6.2179742 -3.8990159 1.1573126
6.1966586 -3.9143384 1.1557549
6.1759968 -3.9284847 1.1541973
6.1629353 -3.9489434 1.1541973
6.1345887 -3.9565043 1.1510822
6.1055603 -3.9649973 1.1479669
6.076539 -3.9733469 1.1448517
6.0722766 -3.997849 1.1464092
6.0514541 -4.0114484 1.1448517
6.0306058 -4.0249557 1.143294
6.0097322 -4.0383725 1.1417364
5.997016 -4.0572329 1.1417364
5.9679122 -4.0649314 1.1386211
5.9543996 -4.0846992 1.1386211
5.9334092 -4.0977721 1.1370635
5.9205065 -4.1163921 1.1370635
5.9075456 -4.1349716 1.1370635
5.8783765 -4.1421309 1.1339482
5.8572783 -4.1548629 1.1323906
5.8441963 -4.173243 1.1323906
5.8230357 -4.1858172 1.130833
5.8098569 -4.2040901 1.130833
5.7886367 -4.2165055 1.1292754
5.7673955 -4.2288294 1.1277177
5.7461343 -4.2410612 1.1261601
5.7327824 -4.2590923 1.1261601
5.711463 -4.2711658 1.1246026
5.6901245 -4.2831473 1.123045
5.676641 -4.301002 1.123045
5.6552463 -4.3128242 1.1214873
5.6416688 -4.3305697 1.1214873
5.6280365 -4.3482718 1.1214873
5.6143484 -4.3659315 1.1214873
5.5928259 -4.37746 1.1199297
5.5712867 -4.388896 1.1183721
5.5729518 -4.4186506 1.1214873
5.5358796 -4.4176536 1.1168145
5.5142722 -4.4288373 1.1152568
5.4926496 -4.439929 1.1136992
5.4710116 -4.4509292 1.1121416
5.4570017 -4.4680948 1.1121416
5.4429379 -4.4852161 1.1121416
5.4288201 -4.5022941 1.1121416
5.414649 -4.5193267 1.1121416
5.4004245 -4.536315 1.1121416
5.3778095 -4.5478196 1.1105839
5.3559728 -4.5582905 1.1090263
5.3341236 -4.5686684 1.1074687
5.3197451 -4.585403 1.1074687
5.3053131 -4.6020932 1.1074687
5.2833877 -4.6122417 1.1059111
5.2540302 -4.615778 1.1027958
5.2543039 -4.6453471 1.1059111
5.2249246 -4.6486988 1.1027958
5.2102947 -4.6650906 1.1027958
5.1882744 -4.6748238 1.1012383
5.1735625 -4.6911001 1.1012383
5.1660967 -4.7139883 1.1027958
5.1367102 -4.7168326 1.0996807
5.1218662 -4.7329469 1.0996807
5.1069722 -4.7490144 1.0996807
5.0920277 -4.7650352 1.0996807
5.0698409 -4.7742367 1.098123
5.0548177 -4.7901402 1.098123
5.0397439 -4.8059964 1.098123
5.0246205 -4.821806 1.098123
5.0094476 -4.8375673 1.098123
4.9871416 -4.8463969 1.0965654
4.9718914 -4.862041 1.0965654
4.9557409 -4.8785014 1.0965654
4.9403901 -4.8940463 1.0965654
4.917995 -4.9025688 1.0950078
4.9025688 -4.917995 1.0950078
4.887094 -4.9333725 1.0950078
4.8785014 -4.9557409 1.0965654
4.8560004 -4.9639816 1.0950078
4.8334966 -4.9721298 1.0934502
4.8178525 -4.9872899 1.0934502
4.8021607 -5.0024014 1.0934502
4.7864218 -5.0174627 1.0934502
4.7706351 -5.0324755 1.0934502
4.7548018 -5.0474377 1.0934502
4.7389212 -5.0623507 1.0934502
4.7229943 -5.0772133 1.0934502
4.7070203 -5.0920258 1.0934502
4.6901083 -5.1076069 1.0934502
4.6673813 -5.1150188 1.0918925
4.651289 -5.1296568 1.0918925
4.6351509 -5.1442437 1.0918925
4.6255555 -5.1661396 1.0934502
4.6093035 -5.1806455 1.0934502
4.5930047 -5.1951008 1.0934502
4.5701418 -5.2020831 1.0918925
4.5472808 -5.2089734 1.0903349
4.5308933 -5.2232342 1.0903349
4.5209112 -5.2449241 1.0918925
4.5044112 -5.2591014 1.0918925
4.4814653 -5.2657042 1.0903349
4.4649 -5.279757 1.0903349
4.4482918 -5.2937574 1.0903349
4.4307122 -5.3084798 1.0903349
4.4140134 -5.3223729 1.0903349
4.403553 -5.3438363 1.0918925
4.3804851 -5.3500018 1.0903349
4.3698897 -5.3713994 1.0918925
4.3467836 -5.3774195 1.0903349
4.3360543 -5.3987498 1.0918925
4.3190722 -5.4123454 1.0918925
4.3020477 -5.4258876 1.0918925
4.2910933 -5.4471354 1.0934502
4.2678709 -5.4528108 1.0918925
4.2507195 -5.4661918 1.0918925
4.2335258 -5.4795189 1.0918925
4.2162905 -5.4927917 1.0918925
4.1990132 -5.5060105 1.0918925
4.1816955 -5.5191746 1.0918925
4.1643357 -5.5322847 1.0918925
4.1518817 -5.5539756 1.0934502
4.1285238 -5.5590611 1.0918925
4.0467634 -5.5944943 1.0887772
3.9396071 -5.6704636 1.0887772
3.9273841 -5.6909423 1.0903349
3.8786006 -5.7719669 1.0965654
3.6105492 -5.9664259 1.0996807
3.5968752 -5.9862056 1.1012383
3.583112 -6.0059595 1.1027958
3.554158 -6.0001884 1.0996807
3.5402982 -6.0198388 1.1012383
3.5213685 -6.0309315 1.1012383
11.527314 0.37836936 1.4150145
11.450938 0.26985988 1.4052726
11.412035 0.23307046 1.4004017
11.353167 0.19618517 1.3930951
11.304075 0.16179062 1.3870064
11.264806 0.12780172 1.3821355
11.21551 0.093964107 1.3760469
11.176047 0.05851803 1.3711758
11.13647 0.025264421 1.3663049
11.086867 -0.0096751191 1.3602163
11.047088 -0.042417981 1.3553452
11.007198 -0.076845989 1.3504744
10.957296 -0.10901091 1.3443856
10.917201 -0.142914 1.3395146
10.877031 -0.17466784 1.3346437
10.82681 -0.20788537 1.328555
10.786453 -0.23912825 1.323684
10.755882 -0.27226016 1.3200308
10.715341 -0.30304986 1.3151598
10.664732 -0.33515269 1.3090712
10.63393 -0.36577046 1.3054178
10.593055 -0.39768663 1.3005469
10.552158 -0.42750785 1.2956759
10.511099 -0.45892447 1.290805
10.469946 -0.49008736 1.285934
10.438616 -0.52149147 1.2822808
10.397182 -0.55399185 1.2774098
10.355752 -0.58441579 1.2725389
10.314233 -0.61458486 1.2676679
10.282534 -0.64512044 1.2640147
10.240839 -0.67481029 1.2591438
10.19906 -0.70424449 1.2542728
10.167098 -0.73413771 1.2506195
10.135049 -0.7638371 1.2469664
10.102915 -0.79334247 1.2433132
10.060802 -0.82184529 1.2384422
10.01861 -0.8500914 1.2335712
9.986227 -0.87895066 1.2299179
9.953763 -0.90761513 1.2262647
9.9212179 -0.93608415 1.2226115
9.8787136 -0.9633944 1.2177405
9.8460102 -0.99144119 1.2140872
9.8033571 -1.0182666 1.2092164
9.7803726 -1.0469466 1.2067809
9.7472496 -1.0761064 1.2031277
9.7043724 -1.1022422 1.1982567
9.6809464 -1.1321113 1.1958212
9.6479807 -1.1572839 1.192168
9.11238 -1.5347009 1.1337165
9.0282955 -1.6684066 1.12641
9.0035 -1.6930927 1.1239746
8.9786396 -1.7176398 1.1215391
8.9439697 -1.7401516 1.1178858
8.9189854 -1.7643892 1.1154504
8.883894 -1.7880805 1.1117972
8.8490601 -1.8100139 1.1081438
8.824214 -1.832226 1.1057085
8.789279 -1.8537939 1.1020553
8.7636728 -1.8787687 1.0996197
8.728632 -1.8999581 1.0959666
8.7032356 -1.9230872 1.093531
8.6680965 -1.943904 1.0898778
8.6425905 -1.9667212 1.0874423
8.6170273 -1.9893975 1.0850068
8.5910549 -2.0134318 1.0825713
8.5653744 -2.0358212 1.0801359
8.5299883 -2.0557437 1.0764827
8.5042038 -2.0778196 1.0740472
8.4879999 -2.1021397 1.0728294
8.4453907 -2.149564 1.0691762
8.3356848 -2.1774986 1.0569987
8.2764759 -2.2455666 1.0521278
8.2598095 -2.2689278 1.0509101
8.2331152 -2.2909842 1.0484746
8.2067699 -2.3114562 1.0460392
8.180377 -2.3317852 1.0436037
8.1539373 -2.3519719 1.0411682
8.1274519 -2.3720145 1.0387326
8.1009216 -2.3919146 1.0362973
8.0743465 -2.4116714 1.0338618
8.0473032 -2.4326894 1.0314263
8.0301285 -2.4550569 1.0302086
8.0034103 -2.4744081 1.027773
7.9766512 -2.4936166 1.0253376
7.9498491 -2.512681 1.022902
7.923007 -2.5316019 1.0204666
7.8961239 -2.5503786 1.0180311
7.8786373 -2.5720918 1.0168133
7.8512144 -2.5919812 1.014378
7.8242016 -2.6103513 1.0119424
7.797152 -2.6285772 1.0095069
7.7700639 -2.6466591 1.0070714
7.7523265 -2.6678264 1.0058538
7.7532811 -2.6954272 1.0070714
7.6979513 -2.7033281 1.0009828
7.6800661 -2.7241802 0.99976504
7.652781 -2.7415993 0.99732947
7.625464 -2.7588742 0.99489409
7.6069508 -2.7807381 0.9936763
7.5888658 -2.8011854 0.99245852
7.5614271 -2.8180802 0.99002314
7.5432467 -2.8383255 0.98880535
7.4974618 -2.8750036 0.98515213
7.4515138 -2.9112182 0.98149884
7.3961864 -2.9433002 0.97662789
7.3776937 -2.9628224 0.97541022
7.3591499 -2.9822578 0.97419244
7.3313704 -2.997849 0.97175699
7.3035655 -3.0132954 0.96932149
7.2848992 -3.0324111 0.96810377
7.2661853 -3.051439 0.96688604
7.2468877 -3.0716443 0.96566826
7.2098231 -3.0826895 0.96201503
7.190989 -3.1013935 0.96079731
7.1812105 -3.1239696 0.96079731
7.1531825 -3.1385384 0.9583618
7.1342101 -3.1569788 0.95714408
7.1061292 -3.1712861 0.95470858
7.0951018 -3.2199743 0.95592636
7.0296683 -3.2436969 0.94983763
7.0014443 -3.2573917 0.94740212
6.9827623 -3.2739375 0.94618446
6.9634686 -3.2916167 0.94496667
6.9441333 -3.309207 0.94374895
6.9247561 -3.3267078 0.94253117
6.8964043 -3.3397937 0.94009572
6.8769588 -3.357089 0.938878
6.8669677 -3.3774786 0.938878
6.8474302 -3.3946264 0.93766022
6.8278537 -3.4116848 0.93644249
6.7993712 -3.4241893 0.93400699
6.7803302 -3.439858 0.93278927
6.7606525 -3.4566236 0.93157148
6.7321134 -3.4687531 0.92913604
6.7123742 -3.4853115 0.92791831
6.6925969 -3.5017803 0.92670053
6.6727834 -3.5181592 0.92548281
6.6535487 -3.5332873 0.92426509
6.6336646 -3.54949 0.92304736
6.6143661 -3.5644479 0.92182958
6.6025095 -3.5863621 0.92182958
6.5831318 -3.6011732 0.92061186
6.5630927 -3.6170461 0.91939414
6.5430198 -3.632829 0.91817641
6.5229115 -3.6485209 0.91695863
6.5027704 -3.6641228 0.91574091
6.482595 -3.6796339 0.91452312
6.4623871 -3.6950545 0.91330546
6.4335446 -3.7054312 0.91086996
6.4218717 -3.7256246 0.91086996
6.401566 -3.740773 0.90965217
6.3812284 -3.7558315 0.90843451
6.3693976 -3.7758601 0.90843451
6.3489819 -3.7907627 0.90721673
6.3285356 -3.8055751 0.905999
6.3080587 -3.8202963 0.90478122
6.2960258 -3.8400946 0.90478122
6.2670159 -3.8494651 0.90234578
6.2548914 -3.8691349 0.90234578
6.2427053 -3.8887661 0.90234578
6.2220492 -3.9030843 0.90112799
6.1922903 -3.9130914 0.89869249
6.1799669 -3.9325254 0.89869249
6.1668921 -3.9529974 0.89869249
6.1384554 -3.9605153 0.89625704
6.11766 -3.9743731 0.89503932
6.0968375 -3.9881389 0.89382154
6.0759892 -4.0018134 0.89260381
6.0551147 -4.0153966 0.89138609
6.0424705 -4.034399 0.89138609
6.0297661 -4.0533624 0.89138609
6.0087824 -4.0667224 0.89016837
5.9877744 -4.0799904 0.88895059
5.9660282 -4.0942078 0.88773286
5.9531364 -4.1129308 0.88773286
5.9320374 -4.1259451 0.88651514
5.9190459 -4.1445603 0.88651514
5.8978834 -4.1574173 0.88529742
5.876699 -4.1701813 0.88407964
5.8635693 -4.1886225 0.88407964
5.8423228 -4.2012281 0.88286191
5.8290954 -4.2195616 0.88286191
5.8077888 -4.232008 0.88164413
5.7864618 -4.2443624 0.88042647
5.7730989 -4.2625203 0.88042647
5.7437468 -4.2687945 0.87799096
5.738255 -4.2927632 0.87920868
5.7088828 -4.2988281 0.87677318
5.6874394 -4.3107467 0.87555552
5.6738687 -4.3285928 0.87555552
5.6602421 -4.3463964 0.87555552
5.6387062 -4.3580875 0.87433773
5.6249871 -4.3757801 0.87433773
5.6033974 -4.3873115 0.87312001
5.5817909 -4.3987494 0.87190223
5.5601673 -4.4100952 0.87068444
5.5540423 -4.4337339 0.87190223
5.524611 -4.4387274 0.86946678
5.5183568 -4.4623022 0.87068444
5.496613 -4.4733515 0.86946678
5.482532 -4.4905977 0.86946678
5.4607387 -4.5014853 0.868249
5.4542089 -4.5249562 0.86946678
5.4323473 -4.5357075 0.868249
5.4104724 -4.5463657 0.86703128
5.3953667 -4.5642824 0.86703128
5.3810005 -4.5812101 0.86703128
5.3665819 -4.5980926 0.86703128
5.344593 -4.6084476 0.86581349
5.3225923 -4.61871 0.86459583
5.3080559 -4.6354089 0.86459583
5.2785563 -4.638957 0.86216033
5.2639561 -4.6555176 0.86216033
5.2344761 -4.658834 0.85972482
5.2198143 -4.6752553 0.85972482
5.1977277 -4.6849852 0.8585071
5.175632 -4.694623 0.85728937
5.1608582 -4.7108593 0.85728937
5.1387234 -4.7203345 0.85607159
5.1238685 -4.7364554 0.85607159
5.101696 -4.745769 0.85485387
5.0940075 -4.7685556 0.85607159
5.0862265 -4.7913418 0.85728937
5.0711489 -4.8072968 0.85728937
5.0416574 -4.8095021 0.85485387
5.0193629 -4.8184433 0.85363615
5.0113397 -4.841085 0.85485387
4.9889889 -4.8498855 0.85363615
4.9737277 -4.8655353 0.85363615
4.9504938 -4.8750377 0.85241842
4.935154 -4.8905659 0.85241842
4.9197655 -4.9060459 0.85241842
4.8973222 -4.9144468 0.85120064
4.8958268 -4.9439135 0.85363615
4.8802714 -4.9592695 0.85363615
4.8646669 -4.974577 0.85363615
4.8490148 -4.9898353 0.85363615
4.8333149 -5.0050445 0.85363615
4.8175673 -5.0202041 0.85363615
4.8017726 -5.0353136 0.85363615
4.7859297 -5.050374 0.85363615
4.77004 -5.0653849 0.85363615
4.7541027 -5.0803456 0.85363615
4.7313604 -5.0879869 0.85241842
4.7153525 -5.1028261 0.85241842
4.6984048 -5.1184349 0.85241842
4.6823015 -5.1331701 0.85241842
4.6661525 -5.1478543 0.85241842
4.6499572 -5.162488 0.85241842
4.6337156 -5.1770711 0.85241842
4.6174288 -5.1916022 0.85241842
4.6010957 -5.2060828 0.85241842
4.5847178 -5.2205119 0.85241842
4.568294 -5.23489 0.85241842
4.5453229 -5.2417164 0.85120064
4.5288339 -5.25597 0.85120064
4.5122991 -5.2701716 0.85120064
4.4957199 -5.2843218 0.85120064
4.4790964 -5.2984195 0.85120064
4.4624295 -5.3124642 0.85120064
4.4511466 -5.3348546 0.85241842
4.42803 -5.3411708 0.85120064
4.4112282 -5.3550558 0.85120064
4.4006701 -5.3765683 0.85241842
4.3774948 -5.3826661 0.85120064
4.3605628 -5.3963919 0.85120064
4.3435884 -5.4100642 0.85120064
4.3327603 -5.4314427 0.85241842
4.3156757 -5.4450274 0.85241842
4.2985482 -5.458559 0.85241842
4.2813787 -5.4720359 0.85241842
4.2641668 -5.4854593 0.85241842
4.2408452 -5.490973 0.85120064
4.2296166 -5.5121436 0.85241842
4.2122784 -5.5254045 0.85241842
4.1948996 -5.53861 0.85241842
4.1834464 -5.5596924 0.85363615
4.1590452 -5.5655837 0.85241842
4.1474562 -5.5865917 0.85363615
4.1298852 -5.5995936 0.85363615
4.1064072 -5.6045341 0.85241842
4.0887794 -5.6174073 0.85241842
4.0769281 -5.6382675 0.85363615
4.0534039 -5.6429868 0.85241842
4.035656 -5.6556931 0.85241842
4.0226169 -5.6771431 0.85363615
4.0047622 -5.6897521 0.85363615
3.9868674 -5.7023058 0.85363615
3.9689336 -5.7148027 0.85363615
3.9509602 -5.7272434 0.85363615
3.9273376 -5.7314396 0.85241842
3.9148974 -5.7519546 0.85363615
3.8968077 -5.764225 0.85363615
3.8796878 -5.7757621 0.85363615
3.8615232 -5.7879219 0.85363615
3.842309 -5.8006949 0.85363615
3.8240664 -5.8127375 0.85363615
3.8057864 -5.8247223 0.85363615
3.7928722 -5.8449759 0.85485387
3.7744906 -5.856863 0.85485387
3.7560725 -5.8686919 0.85485387
3.7429409 -5.8888397 0.85607159
3.7244217 -5.9005694 0.85607159
3.7058661 -5.912241 0.85607159
3.6872742 -5.9238539 0.85607159
3.6686463 -5.9354086 0.85607159
3.6499813 -5.9469047 0.85607159
3.6312802 -5.9583421 0.85607159
3.6166389 -5.9788442 0.85728937
3.5978384 -5.9901762 0.85728937
3.5942528 -6.0270243 0.86094254
3.5613437 -6.0580449 0.86216033
3.5281861 -6.0888896 0.86337805
3.513989 -6.1085477 0.86459583
3.4849372 -6.1023188 0.86216033
3.4706438 -6.121871 0.86337805
3.4562626 -6.1413941 0.86459583
13.411572 1.9230847 1.1795956
13.447475 1.8827401 1.1821977
11.811648 0.5673517 1.0295441
11.833277 0.53113723 1.0312787
11.442671 0.30363542 0.99658483
11.40373 0.26675606 0.99311543
11.354711 0.22991723 0.98877865
11.315534 0.19355947 0.98530924
11.276213 0.15942349 0.9818399
11.226828 0.12541126 0.97750312
11.17734 0.091693483 0.97316635
11.137724 0.056373533 0.96969694
11.097993 0.023240274 0.96622753
11.058162 -0.011580084 0.96275818
11.01823 -0.044230249 0.95928878
10.978189 -0.078559615 0.95581937
10.928098 -0.11062793 0.95148259
10.877891 -0.14429827 0.94714594
10.84753 -0.17608781 0.94454384
10.736694 -0.23989996 0.93500298
10.706011 -0.27286756 0.93240094
10.675279 -0.30378154 0.92979884
10.634442 -0.33605874 0.92632943
10.593573 -0.36623338 0.92286009
10.562505 -0.39838579 0.92025805
10.511506 -0.42769846 0.91592127
10.490205 -0.45984662 0.9141866
10.438951 -0.49046248 0.90984988
10.39756 -0.52125967 0.90638047
10.365931 -0.55414099 0.90377843
10.334298 -0.58501452 0.90117633
10.292631 -0.61510056 0.89770693
10.240935 -0.64430499 0.89337027
10.209039 -0.67450434 0.89076811
10.177053 -0.70450956 0.88816613
10.135045 -0.73360139 0.88469672
10.102888 -0.76318657 0.88209468
10.070645 -0.79257703 0.87949258
10.038319 -0.8217724 0.87689054
9.9959822 -0.84992856 0.87342113
9.9535675 -0.87782681 0.86995178
9.9209976 -0.90637332 0.86734974
9.8883457 -0.93472391 0.86474764
9.8556156 -0.96287835 0.8621456
9.8228064 -0.99083644 0.85954356
9.7800102 -1.0175668 0.85607415
9.7470484 -1.0451003 0.85347217
9.7237244 -1.075227 0.85173744
9.6906042 -1.1023915 0.8491354
9.6671047 -1.132203 0.84740067
9.0078278 -1.6369997 0.79709435
9.022233 -1.6689148 0.79882914
8.9777842 -1.6898794 0.79535973
8.842454 -1.8102707 0.78581882
8.8077831 -1.8304176 0.78321677
8.7824945 -1.8539639 0.78148216
8.7373362 -1.8747175 0.77801275
8.7119341 -1.8979162 0.77627802
8.7059288 -1.9252762 0.77627802
8.4513588 -2.0946307 0.75806367
8.4350739 -2.1187441 0.75719631
8.2945147 -2.2240601 0.74765545
8.2778721 -2.2474968 0.74678808
8.2419519 -2.2655697 0.74418604
8.2151995 -2.2875438 0.74245131
8.1887951 -2.3079364 0.7407167
8.162343 -2.3281853 0.73898196
8.1358461 -2.3482914 0.73724729
8.118866 -2.3710465 0.73637992
8.0922689 -2.3908956 0.73464525
8.0656271 -2.4106004 0.73291051
8.038517 -2.431565 0.73117578
8.0117865 -2.450978 0.72944111
7.9754953 -2.4673028 0.72683907
7.9677043 -2.4923465 0.72683907
7.9408379 -2.5113571 0.72510433
7.9139309 -2.5302241 0.72336972
7.8869834 -2.5489466 0.72163498
7.8599977 -2.5675249 0.71990031
7.7960048 -2.6024561 0.71556354
7.7417808 -2.6385331 0.71209413
7.7156401 -2.6838508 0.71122676
7.6883717 -2.7014716 0.70949203
7.6704593 -2.72228 0.70862472
7.661869 -2.7463641 0.70862472
7.6157336 -2.7568569 0.70515537
7.5878367 -2.7752526 0.70342058
7.5790806 -2.7990763 0.70342058
7.5515814 -2.8159118 0.70168597
7.5240502 -2.8326018 0.69995123
7.5058017 -2.8526857 0.69908386
7.4782004 -2.8691149 0.69734919
7.4598598 -2.8889964 0.69648182
7.4321904 -2.9051642 0.69474715
7.4137592 -2.9248426 0.69387978
7.3952785 -2.9444337 0.69301242
7.3675036 -2.9602239 0.69127774
7.3397026 -2.9758685 0.68954301
7.3210974 -2.9951398 0.6886757
7.2932339 -3.0105224 0.68694097
7.2745438 -3.0295901 0.6860736
7.255805 -3.0485697 0.68520623
7.2273126 -3.0648353 0.68347156
7.2084889 -3.0836072 0.68260425
7.1804719 -3.0983443 0.68086952
7.1615682 -3.1169114 0.68000215
7.1426187 -3.1353903 0.67913485
7.1145144 -3.1497481 0.67740011
7.0954871 -3.1680217 0.67653275
7.0673313 -3.182117 0.67479807
7.0482287 -3.2001855 0.67393076
7.0653143 -3.2347536 0.67653275
6.9436345 -3.2837238 0.66872662
6.9242916 -3.3012345 0.66785926
6.9049072 -3.318656 0.66699195
6.8854818 -3.3359883 0.66612458
6.8660154 -3.353231 0.66525722
6.8470974 -3.3691895 0.66438991
6.8275542 -3.3862574 0.66352254
6.8079715 -3.4032354 0.66265517
6.7794523 -3.4156418 0.6609205
6.7692881 -3.4357414 0.6609205
6.7407222 -3.4479175 0.65918577
6.7387118 -3.4736414 0.66005313
6.7012439 -3.4810178 0.65745109
6.6814489 -3.4974327 0.65658373
6.6616168 -3.5137579 0.65571642
6.6511621 -3.5335081 0.65571642
6.6224623 -3.5449827 0.65398169
6.6031456 -3.5598886 0.65311432
6.5913043 -3.5817659 0.65311432
6.5631695 -3.5917413 0.65137964
6.5431294 -3.6075327 0.65051228
6.5317636 -3.6280708 0.65051228
6.5116396 -3.643708 0.64964491
6.4914818 -3.6592553 0.6487776
6.4626279 -3.6697922 0.64704293
6.4424195 -3.6851299 0.64617556
6.4308105 -3.7053514 0.64617556
6.4019055 -3.7155347 0.64444083
6.3902016 -3.7356284 0.64444083
6.3784342 -3.7556853 0.64444083
6.3580346 -3.7706237 0.64357346
6.337605 -3.7854707 0.64270616
6.3171444 -3.8002267 0.64183879
6.2966542 -3.8148916 0.64097142
6.276134 -3.8294652 0.64010406
6.2555847 -3.8439476 0.63923675
6.2350059 -3.8583391 0.63836938
6.2143993 -3.8726389 0.63750207
6.2022023 -3.8921428 0.63750207
6.1808405 -3.9073653 0.63663471
6.160131 -3.9214139 0.63576734
6.1470933 -3.9418201 0.63576734
6.1269999 -3.9546387 0.63489997
6.1061931 -3.9684391 0.63403267
6.0936956 -3.9876027 0.63403267
6.0728192 -4.0012455 0.6331653
6.0519171 -4.0147972 0.63229793
6.0392747 -4.0337901 0.63229793
6.0183053 -4.0471835 0.63143057
5.9973116 -4.0604854 0.63056326
5.976294 -4.0736952 0.62969589
5.9545393 -4.0878525 0.62882859
5.9334717 -4.1008749 0.62796122
5.9205594 -4.1194949 0.62796122
5.8994288 -4.132359 0.62709385
5.8782759 -4.1451311 0.62622648
5.857101 -4.1578112 0.62535918
5.8440099 -4.1761913 0.62535918
5.8227739 -4.1887121 0.62449181
5.809586 -4.2069845 0.62449181
5.7882905 -4.2193465 0.62362444
5.7750068 -4.2375102 0.62362444
5.7536516 -4.2497134 0.62275708
5.7322779 -4.2618241 0.62188977
5.7188606 -4.2798114 0.62188977
5.6974297 -4.2917628 0.6210224
5.6759801 -4.3036208 0.62015504
5.6624317 -4.3214312 0.62015504
5.664629 -4.351337 0.62188977
5.6272864 -4.3508306 0.61928773
5.6135902 -4.3684874 0.61928773
5.5919957 -4.3799582 0.6184203
5.5703845 -4.3913374 0.617553
5.5565615 -4.4088149 0.617553
5.5348983 -4.4200335 0.61668563
5.5132203 -4.431159 0.61581832
5.4992723 -4.4484572 0.61581832
5.4929953 -4.4720011 0.61668563
5.3640523 -4.6563287 0.6184203
5.3418946 -4.6666036 0.617553
5.327208 -4.6833625 0.617553
5.305007 -4.6934733 0.61668563
5.2827954 -4.7034922 0.61581832
5.2605729 -4.7134171 0.61495095
5.2383409 -4.7232494 0.61408359
5.2234764 -4.7396832 0.61408359
5.2085605 -4.7560697 0.61408359
5.1789222 -4.7589278 0.61234891
5.1712604 -4.7819376 0.61321622
5.1416259 -4.7845869 0.61148155
5.1265693 -4.8007159 0.61148155
5.1114616 -4.8167982 0.61148155
5.0890756 -4.8259773 0.61061424
5.0738893 -4.8419414 0.61061424
5.0586529 -4.8578577 0.61061424
5.0362024 -4.8668032 0.60974681
5.0208883 -4.8826003 0.60974681
4.9984045 -4.8913822 0.60887951
4.9821563 -4.9079309 0.60887951
4.966713 -4.9235582 0.60887951
4.951221 -4.9391375 0.60887951
4.9286489 -4.9476094 0.60801214
4.9200897 -4.970149 0.60887951
4.9044514 -4.9855814 0.60887951
4.8957286 -5.0080881 0.60974681
4.8730292 -5.0162983 0.60887951
4.8641648 -5.0387502 0.60974681
4.6557636 -5.1381946 0.60367543
4.6395979 -5.1527958 0.60367543
4.6233873 -5.167346 0.60367543
4.607131 -5.1818452 0.60367543
4.5908289 -5.1962934 0.60367543
4.5679092 -5.2032037 0.60280806
4.5580893 -5.2250361 0.60367543
4.5612278 -5.2619123 0.60627747
4.5251694 -5.253572 0.60367543
4.5086427 -5.2677622 0.60367543
4.4856172 -5.2743111 0.60280806
4.4690251 -5.2883773 0.60280806
4.4523892 -5.3023906 0.60280806
4.4347816 -5.3171263 0.60280806
4.4244123 -5.3387032 0.60367543
4.3949528 -5.3371959 0.60194075
4.3844728 -5.3586864 0.60280806
4.3676157 -5.3724341 0.60280806
4.3507166 -5.3861289 0.60280806
4.3400102 -5.4075398 0.60367543
4.3292112 -5.428937 0.60454273
4.3183212 -5.4503193 0.6054101
4.301177 -5.4638591 0.6054101
4.2655783 -5.4538026 0.60280806
4.2606487 -5.4829097 0.60454273
4.2373152 -5.4883819 0.60367543
4.2200522 -5.5016665 0.60367543
4.2027469 -5.5148973 0.60367543
4.185401 -5.5280733 0.60367543
4.1680131 -5.5411949 0.60367543
4.1496153 -5.554986 0.60367543
4.132143 -5.5679951 0.60367543
4.1146307 -5.5809488 0.60367543
4.1029634 -5.6018848 0.60454273
4.0794835 -5.6066918 0.60367543
4.0618496 -5.6194797 0.60367543
4.0441751 -5.6322131 0.60367543
4.0264611 -5.6448903 0.60367543
4.00772 -5.6582117 0.60367543
3.9899247 -5.670774 0.60367543
3.9720895 -5.6832809 0.60367543
3.9542153 -5.6957316 0.60367543
3.9363019 -5.7081261 0.60367543
3.91835 -5.7204642 0.60367543
3.9059629 -5.7409825 0.60454273
3.8879082 -5.7532248 0.60454273
3.870821 -5.7647352 0.60454273
3.8526912 -5.7768674 0.60454273
3.8335137 -5.7896113 0.60454273
3.8153059 -5.8016262 0.60454273
3.8025086 -5.8219247 0.6054101
3.7841995 -5.8338418 0.6054101
3.7658536 -5.8457012 0.6054101
3.7528396 -5.8658948 0.60627747
3.7343924 -5.877656 0.60627747
3.7212248 -5.8977842 0.60714483
3.7026777 -5.9094462 0.60714483
3.6840949 -5.9210491 0.60714483
3.6602383 -5.9241185 0.60627747
3.6468194 -5.9440799 0.60714483
3.6281273 -5.9555073 0.60714483
3.6135125 -5.9760308 0.60801214
3.5947208 -5.9873533 0.60801214
3.5758932 -5.9986172 0.60801214
3.5773275 -6.0441141 0.61148155
3.54318 -6.0295558 0.60887951
3.5242205 -6.040657 0.60887951
3.5052254 -6.0516987 0.60887951
3.4911618 -6.0713172 0.60974681
3.4720716 -6.0822549 0.60974681
3.4578581 -6.1018004 0.61061424
3.448441 -6.1299987 0.61234891
3.443737 -6.1668959 0.61495095
13.426906 1.8344792 0.70553946
13.462298 1.7962531 0.70709926
11.538281 0.37469772 0.60103434
11.263645 0.15727967 0.58647645
9.4412336 -1.3487304 0.49652928
9.4367094 -1.3800312 0.49652928
9.0293875 -1.6425457 0.4778119
8.4451046 -2.1243978 0.45337543
8.419034 -2.1459849 0.45233554
8.3929119 -2.1674294 0.45129567
8.3667393 -2.188731 0.45025584
8.3405142 -2.2098894 0.44921598
8.3142405 -2.2309051 0.44817615
8.2879162 -2.2517769 0.44713625
8.2615442 -2.272506 0.44609645
8.2347221 -2.2945287 0.44505656
8.208251 -2.314966 0.44401672
8.1913347 -2.3380008 0.44349679
8.1647606 -2.358181 0.44245699
8.1285543 -2.3754158 0.44089717
8.1114759 -2.3981097 0.44037727
8.0843439 -2.4192686 0.4393374
8.0575867 -2.4388683 0.43829751
8.0307875 -2.4583237 0.43725771
8.013485 -2.480588 0.43673775
7.9865913 -2.4997849 0.43569794
7.9596562 -2.518837 0.43465805
7.9326811 -2.537745 0.43361822
7.9056649 -2.5565081 0.43257836
7.8876519 -2.5796058 0.43205842
7.8605452 -2.598105 0.43101859
7.8333998 -2.6164589 0.42997873
7.8062177 -2.6346686 0.4289389
7.7884498 -2.655956 0.42841896
7.7611842 -2.6739051 0.42737913
7.7433138 -2.6949921 0.4268592
7.7065449 -2.7093682 0.42529938
7.6885848 -2.7302241 0.42477947
7.6611691 -2.7476223 0.42373961
7.6426263 -2.7696099 0.42321968
7.6151314 -2.7867424 0.42217985
7.4774461 -2.8973076 0.4175005
7.4590063 -2.9171469 0.41698056
7.4312272 -2.933233 0.41594073
7.4126978 -2.9528685 0.4154208
7.3941188 -2.9724169 0.4149009
7.3662362 -2.9881237 0.41386104
7.3475699 -3.0074673 0.4133411
7.3196249 -3.0229118 0.41230124
7.3008738 -3.0420506 0.41178131
7.2723346 -3.0585015 0.41074145
7.2443037 -3.0735323 0.40970162
7.2346125 -3.0962758 0.40970162
7.206512 -3.1110725 0.40866175
7.1875472 -3.1297102 0.40814185
7.1685357 -3.1482596 0.40762192
7.1494789 -3.1667204 0.40710199
7.1212592 -3.1810191 0.40606216
7.1021247 -3.1992738 0.40554219
7.0738544 -3.2133098 0.40450236
7.0546455 -3.2313583 0.40398243
7.0353923 -3.2493179 0.4034625
6.9882913 -3.279506 0.40190274
6.9495206 -3.3147511 0.4008629
6.9300723 -3.3322396 0.40034294
6.910583 -3.3496392 0.39982304
6.8910532 -3.3669486 0.39930311
6.8720732 -3.3829689 0.39878318
6.8524656 -3.4001029 0.39826325
6.832818 -3.4171467 0.39774331
6.8042135 -3.429606 0.39670345
6.7851038 -3.4452581 0.39618355
6.7653565 -3.4620078 0.39566362
6.7455711 -3.4786675 0.39514369
6.7257481 -3.4952371 0.39462376
6.6970406 -3.5070837 0.39358392
6.6859894 -3.5281057 0.39358392
6.6578555 -3.538554 0.39254406
6.6379027 -3.5547385 0.39202416
6.627326 -3.5744178 0.39202416
6.6066628 -3.5916054 0.3915042
6.5872178 -3.6063964 0.3909843
6.5671105 -3.6222496 0.39046437
6.5469694 -3.6380122 0.38994443
6.526794 -3.6536839 0.3894245
6.5065846 -3.6692653 0.3889046
6.486342 -3.6847553 0.38838467
6.4573989 -3.6951945 0.38734481
6.4371066 -3.7104754 0.38682491
6.4254179 -3.73068 0.38682491
6.3964243 -3.7407644 0.38578501
6.3846412 -3.7608407 0.38578501
6.3727942 -3.7808805 0.38578501
6.3523126 -3.7957599 0.38526511
6.3318 -3.8105481 0.38474518
6.3112574 -3.8252454 0.38422525
6.2992091 -3.8450534 0.38422525
6.2700834 -3.8543642 0.38318542
6.2579432 -3.8740435 0.38318542
6.2287927 -3.8831179 0.38214555
6.2158818 -3.9037519 0.38214555
6.1951466 -3.9179223 0.38162562
6.1736979 -3.9330792 0.38110569
6.1529055 -3.9470627 0.38058576
6.1411672 -3.9653015 0.38058576
6.120307 -3.9791319 0.38006586
6.099421 -3.9928694 0.3795459
6.0785089 -4.006516 0.379026
6.0575709 -4.0200701 0.37850606
6.0449114 -4.0390806 0.37850606
6.0239067 -4.0524774 0.37798613
6.0028772 -4.0657821 0.3774662
5.9893618 -4.0856657 0.3774662
5.9682646 -4.0988083 0.3769463
5.947144 -4.1118584 0.37642637
5.9341969 -4.1305213 0.37642637
5.913013 -4.1434131 0.37590644
5.8918066 -4.1562119 0.37538651
5.8787203 -4.1747012 0.37538651
5.8655758 -4.1931491 0.37538651
5.8361626 -4.1998892 0.37434664
5.8229389 -4.2182035 0.37434664
5.8096585 -4.2364759 0.37434664
5.7882705 -4.2487974 0.37382674
5.7668619 -4.2610264 0.37330681
5.7454343 -4.2731624 0.37278688
5.7319813 -4.2911911 0.37278688
5.7104959 -4.3031678 0.37226695
5.688992 -4.3150511 0.37174702
5.6754079 -4.3329024 0.37174702
5.661768 -4.3507109 0.37174702
5.6480718 -4.3684759 0.37174702
5.6185598 -4.3739295 0.37070715
5.6047912 -4.3915586 0.37070715
5.5831256 -4.4029617 0.37018725
5.5692654 -4.4204798 0.37018725
5.5145917 -4.5200739 0.37122712
5.5003643 -4.5373759 0.37122712
5.4630318 -4.5354962 0.36966732
5.441093 -4.5462332 0.36914739
5.433629 -4.5706801 0.36966732
5.4116211 -4.5812755 0.36914739
5.3896003 -4.5917773 0.36862746
5.3827295 -4.6151872 0.36914739
5.3606429 -4.6255503 0.36862746
5.3460851 -4.6423683 0.36862746
5.3318086 -4.6890574 0.36966732
5.2724113 -4.6958971 0.36758763
5.1316485 -4.7469702 0.36394814
4.9649282 -4.8926668 0.3629083
4.9637146 -4.9223042 0.36394814
4.9694333 -4.9590359 0.3655079
4.9749694 -4.9958525 0.36706769
4.8648472 -4.9782362 0.36238837
4.8491836 -4.993495 0.36238837
4.8334718 -5.0087047 0.36238837
4.810801 -5.0166564 0.36186844
4.7881269 -5.0245161 0.36134851
4.7791858 -5.0467849 0.36186844
4.7633071 -5.0617743 0.36186844
4.7542024 -5.0840077 0.36238837
4.7382073 -5.098918 0.36238837
4.7348199 -5.1292787 0.36342821
4.5682292 -5.2385049 0.36186844
4.5582895 -5.2603774 0.36238837
4.528708 -5.2595367 0.36134851
4.5121632 -5.2737379 0.36134851
4.4955726 -5.2878876 0.36134851
4.4724936 -5.2943559 0.36082861
4.4558392 -5.3083801 0.36082861
4.4382114 -5.3231273 0.36082861
4.4214664 -5.3370438 0.36082861
4.4046774 -5.3509083 0.36082861
4.387846 -5.3647194 0.36082861
4.3709702 -5.3784776 0.36082861
4.3540516 -5.3921828 0.36082861
4.33709 -5.4058352 0.36082861
4.320086 -5.4194336 0.36082861
4.3030391 -5.4329786 0.36082861
4.2859497 -5.4464703 0.36082861
4.2811203 -5.4756427 0.36186844
4.2516441 -5.4732919 0.36082861
4.2344284 -5.4866219 0.36082861
4.2232471 -5.5078225 0.36134851
4.2059226 -5.5210633 0.36134851
4.1885576 -5.5342488 0.36134851
4.1701822 -5.5481086 0.36134851
4.1527319 -5.561182 0.36134851
4.1411901 -5.5822215 0.36186844
4.1295576 -5.6032424 0.36238837
4.1119337 -5.6161885 0.36238837
4.0883961 -5.6210027 0.36186844
4.0707164 -5.6338191 0.36186844
4.0529976 -5.6465797 0.36186844
4.0342507 -5.6599889 0.36186844
4.0164495 -5.6726351 0.36186844
3.9986088 -5.6852245 0.36186844
3.9807281 -5.6977587 0.36186844
3.9628086 -5.7102365 0.36186844
3.9448495 -5.7226582 0.36186844
3.9268522 -5.7350225 0.36186844
3.9088151 -5.7473311 0.36186844
3.8963306 -5.7678576 0.36238837
3.8792 -5.7793927 0.36238837
3.8600132 -5.7922249 0.36238837
3.8417978 -5.8043227 0.36238837
3.8290296 -5.8247085 0.3629083
3.8052523 -5.8283467 0.36238837
3.7869229 -5.8402729 0.36238837
3.7739639 -5.8605371 0.3629083
3.7662945 -5.8891907 0.36394814
3.7531288 -5.9094234 0.36446807
3.7238901 -5.9042916 0.36342821
3.7053225 -5.9159617 0.36342821
3.6867192 -5.9275727 0.36342821
3.6733263 -5.9476228 0.36394814
3.6546237 -5.9591331 0.36394814
3.6358843 -5.9705853 0.36394814
3.6160648 -5.9826097 0.36394814
3.6023905 -6.0025029 0.36446807
3.5937397 -6.0309482 0.3655079
3.5646057 -6.0250182 0.36446807
3.5456598 -6.0361872 0.36446807
3.5317104 -6.055923 0.364988
3.5176713 -6.0756307 0.3655079
3.5035431 -6.0953102 0.36602786
3.489326 -6.1149607 0.36654776
3.4799428 -6.1432705 0.36758763
3.4704158 -6.1715817 0.36862746
3.4558775 -6.1911745 0.36914739
13.423494 1.8316268 0.23962495
13.439094 1.7907698 0.23980179
11.738113 0.48581824 0.20779286
11.307156 0.15591349 0.20001167
11.048167 -0.04820703 0.19541372
10.967267 -0.14931287 0.19399895
10.926788 -0.1811896 0.19329156
10.876184 -0.21453029 0.19240735
10.835515 -0.24589223 0.19169997
10.794709 -0.27889878 0.19099259
10.753857 -0.30977449 0.19028521
10.712856 -0.34227994 0.18957782
10.681817 -0.37301725 0.18904729
10.640628 -0.40505198 0.1883399
10.609409 -0.4353916 0.18780938
10.548057 -0.4660717 0.1867483
10.526566 -0.4982616 0.18639462
10.484913 -0.53114277 0.18568724
10.443257 -0.5619306 0.18497986
10.401511 -0.59246188 0.18427248
10.369657 -0.62333637 0.18374193
10.327733 -0.65338534 0.18303455
10.285724 -0.68317693 0.18232718
10.253604 -0.71340525 0.18179664
10.169161 -0.77176297 0.18038188
10.136785 -0.80134267 0.17985135
10.108863 -0.8950789 0.17949766
10.02341 -0.95102137 0.1780829
9.7414799 -1.1443609 0.17348492
9.7479687 -1.1744554 0.17366177
9.7541542 -1.2063009 0.17383862
9.3741589 -1.4026501 0.16764905
9.3301716 -1.4260504 0.16694166
9.2128763 -1.526834 0.16517322
9.1981754 -1.5541039 0.16499637
9.1833944 -1.5812962 0.16481952
9.1094456 -1.5980455 0.16358161
9.0588703 -1.7084165 0.16305108
9.0436392 -1.7349834 0.16287424
9.0087032 -1.7576423 0.1623437
8.9832115 -1.7836123 0.16199
8.9481611 -1.8058912 0.16145948
8.9130592 -1.8279672 0.16092893
8.8880196 -1.8503293 0.16057526
8.8622713 -1.8756522 0.16022155
8.8270092 -1.8971816 0.15969102
8.8014688 -1.9206398 0.15933734
8.7661057 -1.9417937 0.15880679
8.7502079 -1.9671308 0.15862995
8.7147398 -1.9879395 0.15809941
8.6886187 -2.012316 0.15774573
8.6530533 -2.032742 0.15721518
8.6271725 -2.0552824 0.1568615
8.6012344 -2.0776799 0.1565078
8.575243 -2.0999348 0.15615413
8.5394917 -2.1196384 0.1556236
8.5227194 -2.145504 0.15544674
8.4868727 -2.1648543 0.15491621
8.4606686 -2.1865025 0.15456252
8.434413 -2.2080073 0.15420884
8.4177704 -2.2319314 0.15403199
8.3914042 -2.2531798 0.15367828
8.3553391 -2.2716615 0.15314776
8.3288813 -2.2925923 0.15279406
8.3116026 -2.3175139 0.15261723
8.2754126 -2.3354671 0.15208668
8.2584209 -2.3587077 0.15190984
8.2317591 -2.3790884 0.15155615
8.2050524 -2.3993251 0.15120247
8.178298 -2.4194174 0.15084878
8.1510744 -2.4407883 0.1504951
8.1242275 -2.4605868 0.15014139
8.0973377 -2.4802411 0.14978771
8.0704031 -2.4997509 0.14943402
8.052969 -2.522104 0.14925717
8.0354738 -2.5443726 0.14908032
8.0083961 -2.5635078 0.14872663
7.981277 -2.5824978 0.14837293
7.9536643 -2.6027315 0.14801925
7.9264627 -2.6214268 0.14766556
7.8992224 -2.6399772 0.14731188
7.8814168 -2.6615813 0.14713502
7.8540912 -2.6798708 0.14678134
7.8361807 -2.7012734 0.14660449
7.8087707 -2.7193017 0.1462508
7.6886873 -2.759006 0.14448236
7.6800985 -2.812037 0.14465919
7.661849 -2.832684 0.14448236
7.6435447 -2.8532436 0.14430551
7.6158309 -2.8701899 0.1439518
7.5974317 -2.8905466 0.14377497
7.5789795 -2.9108155 0.14359812
7.5511522 -2.9273827 0.14324443
7.5232968 -2.9438045 0.14289075
7.5047116 -2.9637525 0.1427139
7.4767885 -2.9799111 0.14236023
7.4581132 -2.9996545 0.14218336
7.4393883 -3.01931 0.14200652
7.4113612 -3.0350885 0.14165284
7.3833079 -3.0507205 0.14129914
7.364459 -3.0700538 0.1411223
7.354238 -3.0944581 0.1411223
7.3260727 -3.1097336 0.14076862
7.1857257 -3.157305 0.13882332
7.1574888 -3.1717625 0.13846962
7.1566172 -3.1983123 0.13864647
7.1067863 -3.2837963 0.13846962
7.0873713 -3.3018839 0.13829277
7.059442 -3.3144 0.13793908
6.99336 -3.3371596 0.13705486
6.9722538 -3.3810344 0.13705486
6.9526148 -3.3985305 0.13687801
6.9425001 -3.4191446 0.13687801
6.9227691 -3.4364924 0.13670118
6.8940558 -3.4492762 0.13634749
6.8831854 -3.4709177 0.13634749
6.8550282 -3.4822688 0.13599379
6.8351545 -3.4992309 0.13581695
6.8152418 -3.5161021 0.1356401
6.7864199 -3.5282714 0.13528641
6.7753019 -3.5495741 0.13528641
6.7464333 -3.5615063 0.13493273
6.7181802 -3.5721197 0.13457903
6.698112 -3.588486 0.13440219
6.6874352 -3.6083441 0.13440219
6.6666489 -3.6257236 0.13422534
6.6470928 -3.6406851 0.13404851
6.6181145 -3.6518884 0.13369481
6.6066089 -3.672662 0.13369481
6.5863147 -3.688513 0.13351797
6.5659862 -3.7042737 0.13334112
6.5456233 -3.719943 0.13316427
6.5252275 -3.7355208 0.13298742
6.5047984 -3.7510071 0.13281058
6.4843364 -3.7664027 0.13263375
6.4638419 -3.7817059 0.1324569
6.443316 -3.7969177 0.13228005
6.4313555 -3.8171415 0.13228005
6.4021678 -3.8270669 0.13192636
6.3901134 -3.8471611 0.13192636
6.3694458 -3.8620334 0.13174951
6.3487482 -3.8768137 0.13157268
6.3280206 -3.8915021 0.13139582
6.3072634 -3.9060984 0.13121897
6.2864776 -3.920603 0.13104214
6.2734418 -3.9414279 0.13104214
6.2525787 -3.9557714 0.13086529
6.2309952 -3.9711106 0.13068844
6.2184887 -3.9906662 0.13068844
6.1982222 -4.003674 0.1305116
6.1772318 -4.0176754 0.13033475
6.1562152 -4.0315843 0.1301579
6.1351719 -4.0454006 0.12998107
6.1224327 -4.0646548 0.12998107
6.1013207 -4.0783124 0.12980421
6.0801835 -4.0918779 0.12962738
6.0507436 -4.0997429 0.12927368
6.0371151 -4.1197848 0.12927368
6.0159016 -4.133069 0.12909684
6.0028877 -4.151948 0.12909684
5.9816089 -4.1650729 0.12891999
5.9684944 -4.1838441 0.12891999
5.9471521 -4.1968088 0.12874314
5.925787 -4.2096815 0.12856631
5.9125328 -4.2282767 0.12856631
5.8911057 -4.2409892 0.12838946
5.8777528 -4.2594757 0.12838946
5.8562651 -4.272028 0.12821262
5.8347559 -4.2844868 0.12803577
5.8212671 -4.3027959 0.12803577
5.7996993 -4.3150945 0.12785892
5.7861147 -4.3332934 0.12785892
5.7565045 -4.3394122 0.12750524
5.7428432 -4.3574758 0.12750524
5.7291255 -4.3754959 0.12750524
5.7074242 -4.3873792 0.1273284
5.6936126 -4.4052882 0.1273284
5.6876335 -4.4292965 0.12750524
5.6500831 -4.4286385 0.1269747
5.6361418 -4.4463673 0.1269747
5.6143155 -4.4578342 0.12679785
5.5924721 -4.4692082 0.12662101
5.5072412 -4.5738235 0.12662101
5.4851732 -4.5846901 0.12644416
5.4622893 -4.596417 0.12626731
5.4401922 -4.6070929 0.12609047
5.4256916 -4.6241608 0.12609047
5.4111376 -4.6411839 0.12609047
5.3889618 -4.6516271 0.12591363
5.3818698 -4.6750908 0.12609047
5.2926536 -4.6858387 0.1250294
5.2480454 -4.675838 0.12432202
5.2482185 -4.7056513 0.12467571
5.225986 -4.7154179 0.12449887
5.0087204 -4.8741703 0.12361465
4.9532905 -4.944653 0.12379149
4.9447856 -4.9672751 0.12396833
4.9345055 -5.0196371 0.12449887
4.8889408 -5.0361934 0.12414518
4.8661528 -5.044332 0.12396833
4.829525 -5.0379415 0.1234378
4.8136735 -5.0530891 0.1234378
4.8046489 -5.0754476 0.12361465
4.7886796 -5.090517 0.12361465
4.7726641 -5.1055355 0.12361465
4.7634058 -5.12783 0.12379149
4.7531557 -5.1509452 0.12396833
4.7369499 -5.1658525 0.12396833
4.5853944 -5.3272505 0.12432202
4.5686359 -5.3416295 0.12432202
4.5453572 -5.3483377 0.12414518
4.5220819 -5.3549514 0.12396833
4.5052361 -5.369132 0.12396833
4.4874067 -5.3840418 0.12396833
4.47047 -5.3981133 0.12396833
4.4534893 -5.4121308 0.12396833
4.4364653 -5.426095 0.12396833
4.4130921 -5.4322457 0.12379149
4.4022846 -5.4538627 0.12396833
4.3851285 -5.4676661 0.12396833
4.3679304 -5.4814153 0.12396833
4.350688 -5.4951105 0.12396833
4.3334031 -5.5087514 0.12396833
4.3160763 -5.5223379 0.12396833
4.2812929 -5.5493474 0.12396833
4.2699203 -5.5707059 0.12414518
4.2463412 -5.576138 0.12396833
4.2348347 -5.597425 0.12414518
4.2162499 -5.6114368 0.12414518
4.1926188 -5.6166425 0.12396833
4.1809092 -5.6378174 0.12414518
4.163177 -5.6509242 0.12414518
4.1454034 -5.6639757 0.12414518
4.1275892 -5.6769705 0.12414518
4.1097336 -5.6899099 0.12414518
4.0976672 -5.710916 0.12432202
4.0787063 -5.7244735 0.12432202
4.0607023 -5.7372584 0.12432202
4.0426579 -5.7499876 0.12432202
4.0245743 -5.7626591 0.12432202
4.0064507 -5.7752743 0.12432202
3.988287 -5.7878327 0.12432202
3.9700849 -5.8003335 0.12432202
3.957464 -5.8210464 0.12449887
3.9274023 -5.8534145 0.12467571
3.9079702 -5.866406 0.12467571
3.8895206 -5.8786545 0.12467571
3.8710337 -5.8908448 0.12467571
3.8525081 -5.9029765 0.12467571
3.8339441 -5.915051 0.12467571
3.8153429 -5.9270658 0.12467571
3.8020887 -5.9474473 0.12485256
3.6807866 -6.0466962 0.12520625
3.6276903 -6.0903397 0.12538309
3.6085386 -6.1017065 0.12538309
