# .PCD v0.7 - Point Cloud Data file format
VERSION 0.7
FIELDS x y z
SIZE 4 4 4
TYPE F F F
COUNT 1 1 1
WIDTH 1480
HEIGHT 1
VIEWPOINT 0 0 0 1 0 0 0
POINTS 1480
DATA ascii
1.576202 -1.4519327 -0.34114224
1.5716329 -1.4568772 -0.34114224
1.5670482 -1.4618075 -0.34114224
1.562448 -1.4667233 -0.34114224
1.5506536 -1.464843 -0.33957013
1.5532016 -1.4765115 -0.34114224
1.5485554 -1.4813837 -0.34114224
1.5296643 -1.4725432 -0.33799806
1.5321239 -1.4842129 -0.33957013
1.5203819 -1.4821253 -0.33799806
1.5225074 -1.4940759 -0.33957013
1.5107793 -1.4919125 -0.33799806
1.5130899 -1.5036125 -0.33957013
1.4943923 -1.4943924 -0.33642599
1.4966514 -1.5060847 -0.33799806
1.4919125 -1.5107793 -0.33799806
1.4871589 -1.5154587 -0.33799806
1.4754957 -1.5130531 -0.33642599
1.4707352 -1.5176809 -0.33642599
1.4591097 -1.5151803 -0.33485389
1.4543424 -1.5197568 -0.33485389
1.4631717 -1.538631 -0.33799806
1.4515477 -1.5360423 -0.33642599
1.446715 -1.5405949 -0.33642599
1.4486055 -1.5523527 -0.33799806
1.4370067 -1.5496544 -0.33642599
1.4385507 -1.561675 -0.33799806
1.4269695 -1.5589018 -0.33642599
1.422065 -1.5633771 -0.33642599
1.4105244 -1.5605106 -0.33485389
1.405615 -1.5649341 -0.33485389
1.4072676 -1.5767101 -0.33642599
1.3957545 -1.573735 -0.33485389
1.3908035 -1.5781121 -0.33485389
1.385839 -1.5824736 -0.33485389
1.3808606 -1.5868196 -0.33485389
1.3758687 -1.5911498 -0.33485389
1.3644271 -1.5879741 -0.33328182
1.3530192 -1.584742 -0.33170974
1.3544228 -1.5965155 -0.33328182
1.3430353 -1.5932119 -0.33170974
1.3440849 -1.6052285 -0.33328182
1.3390352 -1.6094433 -0.33328182
1.32768 -1.6060305 -0.33170974
1.3226279 -1.6101936 -0.33170974
1.3175628 -1.6143409 -0.33170974
1.3124846 -1.6184722 -0.33170974
1.3011975 -1.6148974 -0.33013764
1.2961178 -1.6189773 -0.33013764
1.2848774 -1.6153125 -0.32856557
1.2920434 -1.634837 -0.33170974
1.2808019 -1.6311208 -0.33013764
1.2695967 -1.6273502 -0.32856557
1.2644778 -1.6313307 -0.32856557
1.2533212 -1.6274707 -0.3269935
1.2542032 -1.6392434 -0.32856557
1.249047 -1.6431755 -0.32856557
1.2438788 -1.6470913 -0.32856557
1.23841 -1.6512071 -0.32856557
1.2273159 -1.6471704 -0.3269935
1.2221351 -1.6510181 -0.3269935
1.2110915 -1.6468934 -0.32542139
1.2059116 -1.6506901 -0.32542139
1.2007201 -1.6544703 -0.32542139
1.1955165 -1.6582344 -0.32542139
1.1903009 -1.6619821 -0.32542139
1.1905068 -1.6739678 -0.3269935
1.1738454 -1.661568 -0.32384932
1.1686196 -1.6652476 -0.32384932
1.1690298 -1.6770122 -0.32542139
1.1581336 -1.6725572 -0.32384932
1.1472769 -1.6680506 -0.32227725
1.142031 -1.6716467 -0.32227725
1.142319 -1.683398 -0.32384932
1.1370248 -1.6869783 -0.32384932
1.1320144 -1.6903446 -0.32384932
1.1318706 -1.7023129 -0.32542139
1.110191 -1.6811378 -0.32070515
1.11032 -1.6928753 -0.32227725
1.0996062 -1.6880801 -0.32070515
1.1050259 -1.7081099 -0.32384932
1.0996542 -1.711573 -0.32384932
1.0836478 -1.6983684 -0.32070515
1.0835927 -1.7101065 -0.32227725
1.0729554 -1.7051437 -0.32070515
1.0728264 -1.716881 -0.32227725
1.0570134 -1.7034602 -0.31913307
1.0568371 -1.7151803 -0.32070515
1.0514436 -1.7184919 -0.32070515
1.0406128 -1.7135282 -0.31913307
1.0352247 -1.7167889 -0.31913307
1.0348992 -1.7285056 -0.32070515
1.0294638 -1.7317483 -0.32070515
1.0189985 -1.7264693 -0.31913307
1.0135696 -1.7296621 -0.31913307
1.0031646 -1.7243015 -0.317561
1.0010853 3.7597134 -0.47831181
1.015475 3.7661331 -0.479532
1.0273027 3.762924 -0.479532
1.0417626 3.7692449 -0.48075217
1.0536 3.7659531 -0.48075217
1.065425 3.7626247 -0.48075217
1.0745056 3.749718 -0.479532
1.0890455 3.7558563 -0.48075217
1.1029762 3.7621329 -0.48197237
1.1147909 3.7586491 -0.48197237
1.1265929 3.7551284 -0.48197237
1.1412656 3.7610686 -0.48319253
1.1530768 3.7574642 -0.48319253
1.1648748 3.7538233 -0.48319253
1.1760086 3.7503502 -0.48319253
1.1907818 3.7560995 -0.48441276
1.2025772 3.7523396 -0.48441276
1.2143606 3.7485428 -0.48441276
1.2261302 3.7447095 -0.48441276
1.2385424 3.7406225 -0.48441276
1.247136 3.7273014 -0.48319253
1.2651983 3.7421696 -0.48563293
1.2737411 3.7287836 -0.48441276
1.2886864 3.7341464 -0.48563293
1.2997595 3.7303064 -0.48563293
1.3147665 3.7355673 -0.48685312
1.3264967 3.7314181 -0.48685312
1.3382139 3.727232 -0.48685312
1.349916 3.7230096 -0.48685312
1.3616048 3.7187507 -0.48685312
1.3767238 3.7237637 -0.48807329
1.3884147 3.7194204 -0.48807329
1.3959469 3.705996 -0.48685312
1.4111097 3.7108698 -0.48807329
1.4227601 3.7064185 -0.48807329
1.4379841 3.7111847 -0.48929346
1.4532504 3.7158928 -0.49051365
1.461274 3.7020762 -0.48929346
1.4765697 3.7066884 -0.49051365
1.4882065 3.7020316 -0.49051365
1.4998305 3.6973376 -0.49051365
1.5114379 3.6926076 -0.49051365
1.5230322 3.6878407 -0.49051365
1.5384269 3.6921997 -0.49173382
1.5538642 3.6964986 -0.49295402
1.5654706 3.6915982 -0.49295402
1.5770596 3.6866622 -0.49295402
1.5886348 3.6816893 -0.49295402
1.5962317 3.6675797 -0.49173382
1.6077452 3.6625471 -0.49173382
1.6192445 3.6574776 -0.49173382
1.6347727 3.6614361 -0.49295402
1.6421933 3.6472313 -0.49173382
1.6495377 3.6330183 -0.49051365
1.6644409 3.6371324 -0.49173382
1.67586 3.6318851 -0.49173382
1.6914479 3.6356018 -0.49295402
1.698647 3.6212835 -0.49173382
1.7142562 3.624903 -0.49295402
1.7256366 3.6194992 -0.49295402
1.7370001 3.6140594 -0.49295402
1.7483448 3.6085851 -0.49295402
1.7683834 3.6209121 -0.49539438
1.7841346 3.6242428 -0.49661455
1.795511 3.6186202 -0.49661455
1.8068714 3.6129611 -0.49661455
1.8182123 3.6072671 -0.49661455
1.8340304 3.6103868 -0.49783474
1.8498876 3.6134412 -0.49905491
1.8612297 3.6076121 -0.49905491
1.8771337 3.610553 -0.50027514
1.8884666 3.6046383 -0.50027514
1.9044147 3.6074657 -0.5014953
1.9204005 3.6102269 -0.50271547
1.9317322 3.6041763 -0.50271547
1.9477627 3.6068227 -0.50393569
1.9543399 3.5919676 -0.50271547
1.9656141 3.5858107 -0.50271547
1.9810426 3.5886517 -0.50393569
1.9874821 3.5737362 -0.50271547
2.003552 3.5761333 -0.50393569
2.014776 3.5698218 -0.50393569
2.0259802 3.5634749 -0.50393569
2.0420988 3.5657046 -0.50515586
2.0477109 3.5510323 -0.50393569
2.0588577 3.5445812 -0.50393569
2.0800066 3.5552294 -0.50637603
2.0861256 3.5401266 -0.50515586
2.0972378 3.5335548 -0.50515586
2.1083279 3.5269492 -0.50515586
2.1142795 3.5118046 -0.50393569
2.1253011 3.5051455 -0.50393569
2.141474 3.5069225 -0.50515586
2.1472828 3.4917226 -0.50393569
2.1634667 3.4933977 -0.50515586
2.1744318 3.4865832 -0.50515586
2.1853738 3.4797354 -0.50515586
2.1909893 3.4644647 -0.50393569
2.2018635 3.4575636 -0.50393569
2.2127142 3.4506297 -0.50393569
2.2283261 3.4523876 -0.50515586
2.2391603 3.4453704 -0.50515586
2.2499726 3.4383194 -0.50515586
2.2607641 3.4312332 -0.50515586
2.2660453 3.4158437 -0.50393569
2.2877901 3.4252155 -0.50637603
2.2985404 3.4180105 -0.50637603
2.3037019 3.402554 -0.50515586
2.3143809 3.3952994 -0.50515586
2.3250353 3.3880122 -0.50515586
2.3356669 3.3806918 -0.50515586
2.3462772 3.3733366 -0.50515586
2.3625555 3.3740799 -0.50637603
2.3731449 3.3666403 -0.50637603
2.3837092 3.3591688 -0.50637603
2.3942499 3.3516641 -0.50637603
2.4047685 3.344125 -0.50637603
2.415262 3.3365543 -0.50637603
2.4257331 3.3289492 -0.50637603
2.4420488 3.3293157 -0.50759619
2.4524953 3.3216279 -0.50759619
2.4569991 3.3059399 -0.50637603
2.4733176 3.3061526 -0.50759619
2.4777226 3.2904367 -0.50637603
2.487474 3.2830713 -0.50637603
2.4977753 3.2752409 -0.50637603
2.5080533 3.2673771 -0.50637603
2.5183051 3.2594821 -0.50637603
2.5224404 3.2437186 -0.50515586
2.5265007 3.227963 -0.50393569
2.5366285 3.2200103 -0.50393569
2.5467329 3.2120245 -0.50393569
2.5568104 3.2040083 -0.50393569
2.5668645 3.1959593 -0.50393569
2.5831308 3.1955988 -0.50515586
2.5931568 3.1874683 -0.50515586
2.5968709 3.1716259 -0.50393569
2.6005094 3.1557927 -0.50271547
2.6104116 3.1476066 -0.50271547
2.6202867 3.1393907 -0.50271547
2.6301358 3.1311438 -0.50271547
2.6399605 3.1228647 -0.50271547
2.6497576 3.1145563 -0.50271547
2.6595287 3.1062169 -0.50271547
2.6687341 3.0983114 -0.50271547
2.6784539 3.0899127 -0.50271547
2.688149 3.0814819 -0.50271547
2.6978159 3.0730224 -0.50271547
2.7074561 3.0645323 -0.50271547
2.7170711 3.0560107 -0.50271547
2.7332761 3.054857 -0.50393569
2.7428606 3.0462544 -0.50393569
2.7524166 3.0376229 -0.50393569
2.7619452 3.0289614 -0.50393569
2.7714484 3.0202689 -0.50393569
2.7809224 3.0115478 -0.50393569
2.7971268 3.010066 -0.50515586
2.7997899 2.994015 -0.50393569
2.8159833 2.9924331 -0.50515586
2.8185468 2.9763641 -0.50393569
2.8273649 2.9679887 -0.50393569
2.8371923 2.9585958 -0.50393569
2.8395801 2.9425263 -0.50271547
2.8488097 2.9335916 -0.50271547
2.8649497 2.9317253 -0.50393569
2.8811045 2.9297874 -0.50515586
2.8833139 2.9136662 -0.50393569
2.899456 2.9116268 -0.50515586
2.9015629 2.8954935 -0.50393569
2.910646 2.8863628 -0.50393569
2.9196987 2.8772051 -0.50393569
2.9287241 2.8680177 -0.50393569
2.9377193 2.858803 -0.50393569
2.9466853 2.8495605 -0.50393569
2.9551282 2.8408041 -0.50393569
2.9712143 2.8383627 -0.50515586
2.9729192 2.8221803 -0.50393569
2.9889898 2.8196378 -0.50515586
2.9978325 2.8102341 -0.50515586
3.0066471 2.8008015 -0.50515586
3.0081472 2.7846005 -0.50393569
3.0241859 2.7818546 -0.50515586
3.0255842 2.7656446 -0.50393569
3.0342574 2.7561264 -0.50393569
3.0355339 2.739929 -0.50271547
3.0515161 2.7370055 -0.50393569
3.0596218 2.7279415 -0.50393569
3.0681775 2.7183149 -0.50393569
3.0767016 2.7086632 -0.50393569
3.0851967 2.6989832 -0.50393569
3.0931907 2.6898179 -0.50393569
3.1016252 2.6800878 -0.50393569
3.1104965 2.6697867 -0.50393569
3.1188679 2.6600022 -0.50393569
3.1347818 2.6566069 -0.50515586
3.1431117 2.6467462 -0.50515586
3.1437988 2.6304903 -0.50393569
3.1596799 2.626945 -0.50515586
3.1679165 2.6170063 -0.50515586
3.1761231 2.6070402 -0.50515586
3.1761537 2.5913312 -0.50393569
3.1842785 2.5813408 -0.50393569
3.192373 2.5713234 -0.50393569
3.2081838 2.5674839 -0.50515586
3.2162347 2.5573914 -0.50515586
3.2164648 2.5411227 -0.50393569
3.2244315 2.5310059 -0.50393569
3.2323678 2.5208626 -0.50393569
3.232425 2.5046167 -0.50271547
3.2481432 2.5005031 -0.50393569
3.2480984 2.4842572 -0.50271547
3.2558863 2.4740415 -0.50271547
3.2636433 2.4637995 -0.50271547
3.2793074 2.4594903 -0.50393569
3.2870185 2.4491751 -0.50393569
3.2867186 2.4329319 -0.50271547
3.3023415 2.4284751 -0.50393569
3.3019404 2.4122324 -0.50271547
3.3095031 2.4018464 -0.50271547
3.3170319 2.391438 -0.50271547
3.324528 2.381006 -0.50271547
3.323904 2.3647971 -0.5014953
3.3313177 2.354342 -0.5014953
3.3386981 2.343864 -0.5014953
3.3460448 2.3333642 -0.5014953
3.3533583 2.3228414 -0.5014953
3.3606386 2.3122957 -0.5014953
3.367887 2.3017256 -0.5014953
3.375102 2.2911327 -0.5014953
3.3658226 2.2694228 -0.49905491
3.3811831 2.2643595 -0.50027514
3.396544 2.2592237 -0.5014953
3.395344 2.2430701 -0.50027514
3.4023736 2.2323928 -0.50027514
3.4176853 2.2271125 -0.5014953
3.4163332 2.2109709 -0.50027514
3.4232619 2.200228 -0.50027514
3.4217913 2.1841214 -0.49905491
3.4282563 2.1739597 -0.49905491
3.4350686 2.1631794 -0.49905491
3.4334331 2.1471138 -0.49783474
3.432101 2.1304822 -0.49661455
3.4556758 2.1301048 -0.49905491
3.4454195 2.1088755 -0.49661455
3.4520273 2.0980418 -0.49661455
3.4586022 2.0871854 -0.49661455
3.4651427 2.0763087 -0.49661455
3.4716482 2.065413 -0.49661455
3.4695737 2.0494492 -0.49539438
3.4759948 2.0385399 -0.49539438
3.4823823 2.0276086 -0.49539438
3.4887357 2.0166574 -0.49539438
3.4947035 2.0062978 -0.49539438
3.500989 1.9953097 -0.49539438
3.5072396 1.9843019 -0.49539438
3.5134568 1.9732728 -0.49539438
3.5192966 1.9628384 -0.49539438
3.5254455 1.9517732 -0.49539438
3.5312204 1.941305 -0.49539438
3.5373015 1.9302025 -0.49539438
3.5346208 1.9143523 -0.49417418
3.5406182 1.9032376 -0.49417418
3.5374932 1.8880513 -0.49295402
3.5521774 1.8815751 -0.49417418
3.5577443 1.8710279 -0.49417418
3.5548065 1.8552486 -0.49295402
3.5691075 1.8492597 -0.49417418
3.5748999 1.8380369 -0.49417418
3.5714974 1.8229105 -0.49295402
3.5683515 1.8071976 -0.49173382
3.5828807 1.8004339 -0.49295402
3.5796361 1.784741 -0.49173382
3.5938113 1.7785152 -0.49295402
3.590472 1.7628407 -0.49173382
3.5956862 1.7521805 -0.49173382
3.6011736 1.7408746 -0.49173382
3.6152716 1.7344761 -0.49295402
3.6117401 1.7188454 -0.49173382
3.6171227 1.7074893 -0.49173382
3.6224687 1.696118 -0.49173382
3.6277797 1.6847283 -0.49173382
3.6330543 1.6733236 -0.49173382
3.6292651 1.6577787 -0.49051365
3.6434965 1.6504632 -0.49173382
3.6396098 1.6349425 -0.49051365
3.6447287 1.6234993 -0.49051365
3.6498106 1.6120417 -0.49051365
3.6457648 1.5965866 -0.48929346
3.650763 1.5851243 -0.48929346
3.6648414 1.5775722 -0.49051365
3.6606507 1.5621543 -0.48929346
3.6563993 1.5467801 -0.48807329
3.6612403 1.5352863 -0.48807329
3.6660459 1.5237756 -0.48807329
3.6708145 1.5122516 -0.48807329
3.6755478 1.5007108 -0.48807329
3.6710434 1.4854342 -0.48685312
3.6851616 1.4769455 -0.48807329
3.6897838 1.4653599 -0.48807329
3.685133 1.4501272 -0.48685312
3.689671 1.4385418 -0.48685312
3.6849132 1.4233677 -0.48563293
3.6893663 1.4117849 -0.48563293
3.6937838 1.4001864 -0.48563293
3.6981642 1.3885758 -0.48563293
3.6932058 1.3734901 -0.48441276
3.6881886 1.358451 -0.48319253
3.6926727 1.3462138 -0.48319253
3.6968842 1.3346052 -0.48319253
3.6917129 1.3196427 -0.48197237
3.7051961 1.3113523 -0.48319253
3.6999311 1.2964225 -0.48197237
3.7039855 1.2847931 -0.48197237
3.717391 1.2763724 -0.48319253
3.7213829 1.2646866 -0.48319253
3.7253368 1.2529918 -0.48319253
3.7198379 1.2381465 -0.48197237
3.7239232 1.225805 -0.48197237
3.7183187 1.2110252 -0.48075217
3.7221045 1.1993386 -0.48075217
3.7258539 1.18764 -0.48075217
3.7201011 1.1729434 -0.479532
3.7237673 1.1612513 -0.479532
3.7273974 1.1495459 -0.479532
3.7214966 1.1349357 -0.47831181
3.7252395 1.1225893 -0.47831181
3.7477725 1.1165473 -0.48075217
3.7322199 1.0991588 -0.47831181
3.7356546 1.087429 -0.47831181
3.7390521 1.0756885 -0.47831181
3.7424128 1.0639373 -0.47831181
3.7268088 1.0461552 -0.47587144
3.7205131 1.0317885 -0.47465128
3.723736 1.0200958 -0.47465128
3.726922 1.008393 -0.47465128
3.7300715 0.99668032 -0.47465128
3.7139909 0.9798919 -0.47221088
3.7170513 0.96821821 -0.47221088
3.7200744 0.95653665 -0.47221088
3.7328465 0.94663572 -0.47343108
3.7261739 0.93249339 -0.47221088
3.729085 0.9207834 -0.47221088
3.7223163 0.90671355 -0.47099072
3.7251461 0.89501578 -0.47099072
3.7279394 0.88330919 -0.47099072
3.7211828 0.86868471 -0.46977052
3.7238934 0.85699069 -0.46977052
3.7168882 0.84309089 -0.46855035
3.7098317 0.82924718 -0.46733016
3.7221117 0.81972194 -0.46855035
3.7149692 0.80591923 -0.46733016
3.7271888 0.79631883 -0.46855035
3.7199597 0.7825613 -0.46733016
3.7126801 0.76886058 -0.46610999
3.7150776 0.75719202 -0.46610999
3.7175682 0.74486721 -0.46610999
3.7198899 0.73318517 -0.46610999
3.7221746 0.72149587 -0.46610999
3.7244232 0.70979774 -0.46610999
3.7168789 0.69626683 -0.46488979
3.7092869 0.68278861 -0.46366963
3.7115307 0.6704852 -0.46366963
3.703846 0.65708876 -0.46244943
3.7058921 0.64544845 -0.46244943
3.7079015 0.63380361 -0.46244943
3.7000859 0.62050915 -0.46122926
3.6922233 0.60727185 -0.46000907
3.7039113 0.59725016 -0.46122926
3.6861625 0.58251148 -0.4587889
3.6977825 0.57244736 -0.46000907
3.6897497 0.55933899 -0.4587889
3.6914885 0.54774523 -0.4587889
3.6833687 0.53472018 -0.45756871
3.6851218 0.52250171 -0.45756871
3.6769137 0.50956023 -0.45634854
3.6784966 0.49800533 -0.45634854
3.6702032 0.48514658 -0.45512834
3.6717091 0.47361463 -0.45512834
3.6633313 0.46083742 -0.45390818
3.6647608 0.44932717 -0.45390818
3.6760099 0.43898764 -0.45512834
3.6576526 0.42514575 -0.45268795
3.6392453 0.41142356 -0.45024759
3.6405201 0.39998749 -0.45024759
3.6418264 0.38791361 -0.45024759
3.6331544 0.3754493 -0.44902742
3.634316 0.36403427 -0.44902742
3.6156838 0.35069925 -0.44658706
3.6266496 0.34026465 -0.44780722
3.617816 0.32797238 -0.44658706
3.6089411 0.31574073 -0.44536686
3.6198053 0.30523601 -0.44658706
3.6207461 0.29386327 -0.44658706
3.6117563 0.28171408 -0.44536686
3.6126237 0.270365 -0.44536686
3.6134551 0.25901669 -0.44536686
3.6142511 0.2476624 -0.44536686
3.6051071 0.23565994 -0.44414669
3.6157358 0.22494829 -0.44536686
3.6065168 0.21300182 -0.44414669
3.6071327 0.20230252 -0.44414669
3.6077504 0.19096835 -0.44414669
3.6083326 0.17963403 -0.44414669
3.5989647 0.16783386 -0.4429265
3.5895584 0.15609606 -0.44170633
3.5900309 0.14481905 -0.44170633
3.5904448 0.13416553 -0.44170633
3.6007681 0.1232253 -0.4429265
3.6011178 0.11254001 -0.4429265
3.6014535 0.10122691 -0.4429265
3.5918159 0.090291969 -0.44170633
3.592082 0.079006493 -0.44170633
3.5823889 0.067534864 -0.44048613
3.5726593 0.056123216 -0.43926597
3.5827346 0.045649786 -0.44048613
3.5729294 0.034923043 -0.43926597
3.5630922 0.024253188 -0.43804577
3.5631509 0.013059977 -0.43804577
3.563174 0.0024867922 -0.43804577
3.5532391 -0.0086822184 -0.4368256
3.5531976 -0.019224837 -0.4368256
3.5531197 -0.03038742 -0.4368256
3.5430892 -0.040815264 -0.43560541
3.5429435 -0.051945984 -0.43560541
3.5427737 -0.062457863 -0.43560541
3.5326371 -0.073381364 -0.43438521
3.5324037 -0.083862573 -0.43438521
3.5222011 -0.094692774 -0.43316504
3.5219047 -0.10514292 -0.43316504
3.5215571 -0.11620678 -0.43316504
3.5211966 -0.12665492 -0.43316504
3.5207815 -0.13771644 -0.43316504
3.5104408 -0.14774483 -0.43194485
3.5099595 -0.15877247 -0.43194485
3.4896159 -0.16883922 -0.42950448
3.4890368 -0.18041027 -0.42950448
3.4884529 -0.19137049 -0.42950448
3.4878345 -0.20232882 -0.42950448
3.4772749 -0.21267924 -0.42828432
3.4666846 -0.22296531 -0.42706412
3.4659672 -0.2338551 -0.42706412
3.4652154 -0.24474257 -0.42706412
3.4743278 -0.25635803 -0.42828432
3.4636092 -0.26651019 -0.42706412
3.4627547 -0.27739012 -0.42706412
3.4519753 -0.28744367 -0.42584395
3.4510553 -0.29828694 -0.42584395
3.4501011 -0.30912724 -0.42584395
3.4293473 -0.31813094 -0.42340359
3.4283309 -0.32890293 -0.42340359
3.4174037 -0.33869284 -0.42218339
3.4163229 -0.34942725 -0.42218339
3.4152083 -0.36015821 -0.42218339
3.4041278 -0.37040779 -0.4209632
3.3930838 -0.3799957 -0.419743
3.401665 -0.3923828 -0.4209632
3.3906293 -0.40130743 -0.419743
3.3893518 -0.41195741 -0.419743
3.3683429 -0.42014635 -0.41730264
3.3669312 -0.43131384 -0.41730264
3.3655596 -0.44188926 -0.41730264
3.3641548 -0.45246023 -0.41730264
3.3725493 -0.46438062 -0.41852283
3.3612454 -0.47358879 -0.41730264
3.3695648 -0.4855617 -0.41852283
3.3679361 -0.49673295 -0.41852283
3.3565445 -0.50583208 -0.41730264
3.3647487 -0.51788431 -0.41852283
3.3533001 -0.5269118 -0.41730264
3.3516281 -0.53744388 -0.41730264
3.3499231 -0.54797059 -0.41730264
3.3481853 -0.558492 -0.41730264
3.3366294 -0.56734413 -0.41608247
3.3348305 -0.57782364 -0.41608247
3.3232245 -0.58657223 -0.41486228
3.3114927 -0.59583163 -0.41364211
3.3096044 -0.60623199 -0.41364211
3.3076837 -0.61662644 -0.41364211
3.2862272 -0.62331557 -0.41120175
3.2939985 -0.63551664 -0.41242191
3.2919858 -0.64586192 -0.41242191
3.2800927 -0.65483183 -0.41120175
3.2780192 -0.6651333 -0.41120175
3.2661927 -0.67342401 -0.40998155
3.2641802 -0.68311203 -0.40998155
3.2521889 -0.69186735 -0.40876138
3.2402978 -0.69998527 -0.40754119
3.2477777 -0.71228772 -0.40876138
3.2261477 -0.71817398 -0.40632102
3.2141943 -0.72611856 -0.40510082
3.2118971 -0.73621267 -0.40510082
3.1997712 -0.74461007 -0.40388066
3.2167358 -0.75921863 -0.40632102
3.1950295 -0.7647 -0.40388066
3.1926115 -0.77473366 -0.40388066
3.1901617 -0.78475976 -0.40388066
3.1780503 -0.79237694 -0.40266046
3.1850276 -0.8053444 -0.40388066
3.1632524 -0.81041998 -0.40144029
3.1606905 -0.82035357 -0.40144029
3.158098 -0.83027905 -0.40144029
3.1458828 -0.83764267 -0.4002201
3.1336527 -0.84493768 -0.39899993
3.1405578 -0.85739213 -0.4002201
3.1185648 -0.86251044 -0.39777973
3.11584 -0.87230337 -0.39777973
3.1130841 -0.88208783 -0.39777973
3.1102974 -0.89186347 -0.39777973
3.1074803 -0.90163028 -0.39777973
3.1046324 -0.91138834 -0.39777973
3.0922394 -0.91831172 -0.39655957
3.0891771 -0.92856091 -0.39655957
3.0862448 -0.93826121 -0.39655957
3.0737948 -0.94503558 -0.39533937
3.0708108 -0.95468748 -0.39533937
3.0583279 -0.96135366 -0.39411917
3.0552926 -0.97095698 -0.39411917
3.0522273 -0.98055059 -0.39411917
3.0396917 -0.98706913 -0.39289901
3.0269718 -0.99404699 -0.39167881
3.0332541 -1.0066779 -0.39289901
3.0206664 -1.0130463 -0.39167881
3.0080683 -1.0193454 -0.39045861
3.0048513 -1.0287905 -0.39045861
3.0016043 -1.0382254 -0.39045861
2.998328 -1.0476501 -0.39045861
2.9856625 -1.0537612 -0.38923842
2.9823372 -1.0631356 -0.38923842
2.9696441 -1.0691376 -0.38801825
2.9660823 -1.0789795 -0.38801825
2.9533613 -1.08487 -0.38679805
2.9685502 -1.1010461 -0.38923842
2.9464867 -1.103405 -0.38679805
2.9337218 -1.1091462 -0.38557789
2.9209499 -1.1148182 -0.38435769
2.9081717 -1.1204209 -0.38313752
2.9046373 -1.1295516 -0.38313752
2.9010744 -1.1386713 -0.38313752
2.8974829 -1.1477796 -0.38313752
2.8846467 -1.1531924 -0.38191733
2.8810096 -1.162249 -0.38191733
2.8681512 -1.167552 -0.38069716
2.855288 -1.1727859 -0.37947696
2.8515897 -1.1817502 -0.37947696
2.8387058 -1.1868743 -0.3782568
2.8438988 -1.2001402 -0.37947696
2.8309822 -1.2051809 -0.3782568
2.8089421 -1.2062361 -0.37581643
2.8142464 -1.2189996 -0.3770366
2.8013077 -1.2238613 -0.37581643
2.8065317 -1.236658 -0.3770366
2.7935629 -1.241438 -0.37581643
2.7805917 -1.2461491 -0.37459624
2.7766631 -1.2548784 -0.37459624
2.7636755 -1.2594794 -0.37337607
2.7597051 -1.2681556 -0.37337607
2.7557073 -1.2768191 -0.37337607
2.7516825 -1.2854701 -0.37337607
2.7388763 -1.2894013 -0.37215587
2.7437787 -1.3022552 -0.37337607
2.7307208 -1.3065846 -0.37215587
2.7266026 -1.3151571 -0.37215587
2.7224574 -1.3237164 -0.37215587
2.7004607 -1.3235266 -0.36971551
2.6965218 -1.3315331 -0.36971551
2.6923254 -1.3399979 -0.36971551
2.6703591 -1.3395488 -0.36727515
2.6661377 -1.3479314 -0.36727515
2.6621265 -1.355836 -0.36727515
2.6490238 -1.3596604 -0.36605498
2.6359234 -1.363416 -0.36483479
2.6316271 -1.3716902 -0.36483479
2.6273048 -1.379951 -0.36483479
2.6229568 -1.3881981 -0.36483479
2.6100676 -1.3913056 -0.36361462
2.605684 -1.3994985 -0.36361462
2.6012745 -1.4076775 -0.36361462
2.588125 -1.4110916 -0.36239442
2.5926268 -1.4235414 -0.36361462
2.5794568 -1.4268751 -0.36239442
2.5749617 -1.4349716 -0.36239442
2.5617859 -1.4381953 -0.36117426
2.5572553 -1.4462363 -0.36117426
2.5613232 -1.4591759 -0.36239442
2.5395093 -1.4573351 -0.35995406
2.5349185 -1.465306 -0.35995406
2.5303025 -1.4732624 -0.35995406
2.5256617 -1.4812043 -0.35995406
2.5209959 -1.4891317 -0.35995406
2.5163052 -1.4970443 -0.35995406
2.5115898 -1.5049421 -0.35995406
2.5068493 -1.5128251 -0.35995406
2.4936025 -1.5155381 -0.35873386
2.4888291 -1.5233643 -0.35873386
2.484031 -1.5311759 -0.35873386
2.4792085 -1.538972 -0.35873386
2.4659452 -1.541492 -0.35751367
2.4608197 -1.5496609 -0.35751367
2.4559393 -1.5573841 -0.35751367
2.4507613 -1.5655198 -0.35751367
2.437757 -1.5674165 -0.3562935
2.4244893 -1.5696733 -0.3550733
2.4195461 -1.5772822 -0.3550733
2.4228766 -1.5903219 -0.3562935
2.4095879 -1.5924535 -0.3550733
2.4045732 -1.6000155 -0.3550733
2.3995347 -1.6075617 -0.3550733
2.3862441 -1.6095421 -0.35385311
2.381176 -1.6170307 -0.35385311
2.3676081 -1.6193149 -0.35263294
2.3706841 -1.6323738 -0.35385311
2.3573871 -1.634159 -0.35263294
2.3441024 -1.6358767 -0.35141274
2.3389516 -1.6432328 -0.35141274
2.3337777 -1.6505728 -0.35141274
2.3124099 -1.6463833 -0.34897238
2.3314281 -1.6709856 -0.35263294
2.3181179 -1.6724945 -0.35141274
2.2967906 -1.6681038 -0.34897238
2.291539 -1.675311 -0.34897238
2.2782705 -1.6766191 -0.34775221
2.2809675 -1.689676 -0.34897238
2.2756479 -1.6968336 -0.34897238
2.2623677 -1.6980165 -0.34775221
2.2570221 -1.7051156 -0.34775221
2.2437537 -1.70619 -0.34653202
2.2383826 -1.7132305 -0.34653202
2.2329893 -1.7202541 -0.34653202
2.2275739 -1.7272607 -0.34653202
2.2221365 -1.7342503 -0.34653202
2.2010667 -1.7289608 -0.34409165
2.2111962 -1.7481781 -0.34653202
2.19016 -1.7427562 -0.34409165
2.1846743 -1.7496282 -0.34409165
2.179167 -1.7564828 -0.34409165
2.1736381 -1.7633202 -0.34409165
2.1680877 -1.7701403 -0.34409165
2.1548474 -1.7706416 -0.34287149
2.1416254 -1.7710772 -0.34165129
2.1360509 -1.7777966 -0.34165129
2.1304553 -1.7844985 -0.34165129
2.1169384 -1.7851551 -0.34043112
2.1113198 -1.7917967 -0.34043112
2.0981331 -1.7919748 -0.33921093
2.1000199 -1.805027 -0.34043112
2.0868323 -1.8051223 -0.33921093
2.0736649 -1.8051527 -0.33799076
2.0754492 -1.8181986 -0.33921093
2.0622818 -1.8181461 -0.33799076
2.0565598 -1.8246161 -0.33799076
2.0508177 -1.8310678 -0.33799076
2.0376723 -1.830868 -0.33677056
2.0245483 -1.8306038 -0.3355504
2.0261283 -1.843635 -0.33677056
2.0130064 -1.8432882 -0.3355504
2.0072055 -1.8496031 -0.3355504
2.001385 -1.8558999 -0.3355504
1.9882882 -1.8554065 -0.3343302
1.9896846 -1.8684382 -0.3355504
1.9765911 -1.8678627 -0.3343302
1.9707133 -1.8740631 -0.3343302
1.9648161 -1.880245 -0.3343302
1.9660486 -1.8932931 -0.3355504
1.9529634 -1.8925532 -0.3343302
1.9399022 -1.8917497 -0.33311003
1.9265354 -1.8912194 -0.33188984
1.9135236 -1.8902872 -0.33066967
1.9075757 -1.8962892 -0.33066967
1.9086258 -1.9092922 -0.33188984
1.9026181 -1.915279 -0.33188984
1.8896191 -1.9141833 -0.33066967
1.8766457 -1.9130249 -0.32944947
1.8775547 -1.9260182 -0.33066967
1.8645889 -1.9247783 -0.32944947
1.8585327 -1.9306267 -0.32944947
1.8524584 -1.936456 -0.32944947
1.8532039 -1.9494597 -0.33066967
1.8402548 -1.9480569 -0.32944947
1.8341258 -1.9538286 -0.32944947
1.8212081 -1.9523234 -0.32822931
1.8150659 -1.9580351 -0.32822931
1.8085628 -1.9640434 -0.32822931
1.7956831 -1.9623929 -0.32700908
1.7961866 -1.9753681 -0.32822931
1.7833177 -1.9736367 -0.32700908
1.7771084 -1.9792296 -0.32700908
1.7774898 -1.9922088 -0.32822931
1.7580533 -1.9829295 -0.32578892
1.758376 -1.9958903 -0.32700908
1.7390219 -1.9864686 -0.32456872
1.7327726 -1.9919221 -0.32456872
1.7135249 -1.9823382 -0.32212836
1.7072887 -1.9877117 -0.32212836
1.7010359 -1.9930654 -0.32212836
1.694766 -1.9983996 -0.32212836
1.6884795 -2.0037138 -0.32212836
1.6690845 -1.9940802 -0.31968799
1.6691585 -2.0069449 -0.32090819
1.6628453 -2.0121787 -0.32090819
1.6502169 -2.0097222 -0.31968799
1.6376207 -2.007206 -0.31846783
1.6438072 -2.0277612 -0.32090819
1.6249769 -2.0174558 -0.31846783
1.6186308 -2.0225508 -0.31846783
1.618446 -2.0353947 -0.31968799
1.5997381 -2.0248928 -0.31724763
1.5933688 -2.0299087 -0.31724763
1.5930876 -2.042731 -0.31846783
1.5745039 -2.0320344 -0.31602743
1.5681124 -2.0369706 -0.31602743
1.5556755 -2.0340033 -0.31480727
1.5552828 -2.0467832 -0.31602743
1.542865 -2.0437376 -0.31480727
1.5301254 -2.0409014 -0.31358707
1.5355638 -2.0616183 -0.31602743
1.5231756 -2.0584538 -0.31480727
1.5108228 -2.0552318 -0.31358707
1.5043584 -2.059968 -0.31358707
1.5037079 -2.0727177 -0.31480727
1.4913857 -2.0693796 -0.31358707
1.4790995 -2.0659842 -0.3123669
1.4722402 -2.070878 -0.3123669
1.4657272 -2.0754929 -0.3123669
1.4477997 -2.0638366 -0.30992654
1.4469832 -2.0765181 -0.31114671
1.4348037 -2.0728924 -0.30992654
1.4226613 -2.0692112 -0.30870634
1.4217511 -2.0818667 -0.30992654
1.409632 -2.0781093 -0.30870634
1.3975507 -2.074296 -0.30748618
1.3913901 -2.0784335 -0.30748618
1.38449 -2.0830362 -0.30748618
1.3779392 -2.0873754 -0.30748618
1.3713746 -2.0916941 -0.30748618
1.3593808 -2.0876746 -0.30626598
1.3582051 -2.1002693 -0.30748618
1.3516003 -2.1045258 -0.30748618
1.3449821 -2.1087615 -0.30748618
1.3330396 -2.1045916 -0.30626598
1.331706 -2.1171706 -0.30748618
1.31979 -2.1129258 -0.30626598
1.3131454 -2.1170616 -0.30626598
1.3012828 -2.1127257 -0.30504581
1.2842821 -2.099869 -0.30260545
1.282462 -2.1126006 -0.30382562
1.2860664 -2.13362 -0.30626598
1.2742599 -2.1291332 -0.30504581
1.2777054 -2.1501908 -0.30748618
1.2608572 -2.1370976 -0.30504581
1.2441039 -2.12392 -0.30260545
1.2374254 -2.1278179 -0.30260545
1.2307345 -2.1316948 -0.30260545
1.2190961 -2.1269395 -0.30138525
1.2173165 -2.1393855 -0.30260545
1.2057079 -2.1345575 -0.30138525
1.2038504 -2.146992 -0.30260545
1.1922724 -2.142091 -0.30138525
1.1951365 -2.1632011 -0.30382562
1.1883347 -2.166945 -0.30382562
1.1720313 -2.1532323 -0.30138525
1.1652608 -2.156904 -0.30138525
1.1581017 -2.1607561 -0.30138525
1.1466465 -2.1556213 -0.30016509
1.139869 -2.1592128 -0.30016509
1.1284741 -2.1539912 -0.29894489
1.1167481 -2.1489146 -0.29772472
1.1099918 -2.1524122 -0.29772472
1.1073678 -2.1649177 -0.29894489
1.1009394 -2.1681938 -0.29894489
1.098588 -2.1805058 -0.30016509
1.0917325 -2.1839464 -0.30016509
1.0804559 -2.1784735 -0.29894489
1.0736068 -2.1818571 -0.29894489
1.062393 -2.1763 -0.29772472
1.0555506 -2.1796269 -0.29772472
1.0486979 -2.1829321 -0.29772472
1.0461047 -2.1951759 -0.29894489
1.0392033 -2.1984515 -0.29894489
1.028078 -2.1927187 -0.29772472
1.0169992 -2.1869378 -0.2965045
1.0142806 -2.1991351 -0.29772472
1.0073667 -2.2023108 -0.29772472
1.0004431 -2.2054646 -0.29772472
1.0082406 6.3657775 -0.56676614
1.0314115 6.382247 -0.5685181
1.0546989 6.3986325 -0.57027012
1.0747944 6.395288 -0.57027012
1.0965642 6.4016981 -0.57114613
1.1183786 6.4080353 -0.57202208
1.1385063 6.40449 -0.57202208
1.1592783 6.4108863 -0.57289809
1.181215 6.4170094 -0.5737741
1.2013707 6.4132667 -0.5737741
1.2252381 6.4290323 -0.57552606
1.247327 6.4349308 -0.57640207
1.2694649 6.4407535 -0.57727802
1.2947325 6.4560428 -0.57903004
1.3189858 6.4714656 -0.580782
1.3433521 6.4867983 -0.58253396
1.3657738 6.4922948 -0.58340997
1.3850327 6.4882135 -0.58340997
1.4075181 6.4935665 -0.58428597
1.4300508 6.4988413 -0.58516198
1.4482911 6.4845943 -0.58428597
1.4686546 6.4800129 -0.58428597
1.4912391 6.4850745 -0.58516198
1.5059506 6.4612184 -0.58340997
1.5262403 6.4564557 -0.58340997
1.5465182 6.4516287 -0.58340997
1.5691303 6.4564185 -0.58428597
1.5917907 6.4611287 -0.58516198
1.6144931 6.4657617 -0.58603799
1.6323531 6.4510002 -0.58516198
1.6526132 6.4458399 -0.58516198
1.6753583 6.4502587 -0.58603799
1.6981504 6.4545965 -0.58691394
1.7184185 6.4492302 -0.58691394
1.7386696 6.4438 -0.58691394
1.7615319 6.4479151 -0.58778995
1.7844341 6.4519506 -0.5886659
1.8046966 6.446312 -0.5886659
1.8276538 6.4501953 -0.58954191
1.8479074 6.4444222 -0.58954191
1.8709216 6.4481516 -0.59041792
1.8900442 6.4425721 -0.59041792
1.9159452 6.4557018 -0.59216988
1.9362156 6.4496512 -0.59216988
1.956467 6.4435368 -0.59216988
1.9737781 6.4278355 -0.59129393
1.9969146 6.4311166 -0.59216988
2.0189717 6.4346681 -0.59304589
2.0421844 6.4377899 -0.59392184
2.0684848 6.4503131 -0.59567386
2.085669 6.4343066 -0.59479785
2.1100962 6.436821 -0.59567386
2.1334424 6.4396157 -0.59654987
2.1536613 6.4328818 -0.59654987
2.1770511 6.4355206 -0.59742582
2.1972599 6.4286489 -0.59742582
2.2206955 6.4311309 -0.59830183
2.2397659 6.4245143 -0.59830183
2.2632487 6.4268413 -0.59917778
2.2867653 6.4290853 -0.60005379
2.3069534 6.4218688 -0.60005379
2.3305128 6.4239545 -0.6009298
2.3541081 6.4259553 -0.60180581
2.3811982 6.4372129 -0.60355777
2.4014082 6.4297009 -0.60355777
2.4204769 6.4225469 -0.60355777
2.4512677 6.442843 -0.60618579
2.4750667 6.4444098 -0.60706174
2.495302 6.4366016 -0.60706174
2.5263991 6.4565616 -0.60968971
2.5576494 6.4763875 -0.61231768
2.5779817 6.4683208 -0.61231768
2.6057229 6.4786744 -0.61406964
2.6298113 6.4796863 -0.61494565
2.6463785 6.4621744 -0.61406964
2.6704729 6.4630346 -0.61494565
2.6907628 6.4546137 -0.61494565
2.711026 6.4461288 -0.61494565
2.7351561 6.4467497 -0.61582166
2.7553945 6.4381256 -0.61582166
2.7756085 6.4294367 -0.61582166
2.7957923 6.4206858 -0.61582166
2.8159485 6.4118714 -0.61582166
2.8360798 6.4029922 -0.61582166
2.8521175 6.3849564 -0.61494565
2.8680725 6.3668809 -0.61406964
2.8880594 6.3578401 -0.61406964
2.9110565 6.3583012 -0.61494565
2.9393697 6.3672123 -0.61669767
2.959357 6.3579469 -0.61669767
2.9835501 6.3576355 -0.61757362
3.012028 6.3662405 -0.61932558
3.032012 6.3567472 -0.61932558
3.0562859 6.3561673 -0.62020159
3.0805831 6.3554988 -0.6210776
3.1049061 6.3547406 -0.62195361
3.1336591 6.3628273 -0.62370557
3.1580608 6.3618741 -0.62458152
3.1780336 6.3519206 -0.62458152
3.202457 6.3508005 -0.62545753
3.2223916 6.3407092 -0.62545753
3.2422974 6.3305535 -0.62545753
3.2621682 6.3203368 -0.62545753
3.2774131 6.3012185 -0.62458152
3.2971916 6.2908916 -0.62458152
3.3262417 6.29812 -0.62633353
3.350693 6.2964325 -0.62720954
3.3751636 6.2946548 -0.62808555
3.3996587 6.2927837 -0.6289615
3.4289348 6.2995715 -0.63071346
3.4487073 6.2887688 -0.63071346
3.4721692 6.2872281 -0.63158953
3.4967456 6.2849946 -0.63246548
3.516475 6.2739768 -0.63246548
3.5410645 6.271574 -0.63334149
3.5705986 6.2777371 -0.63509345
3.6051612 6.2924175 -0.63772142
3.6238141 6.2816939 -0.63772142
3.6535423 6.2875032 -0.63947338
3.6732757 6.2759953 -0.63947338
3.7030907 6.2815876 -0.6412254
3.7228084 6.2699223 -0.6412254
3.7527118 6.2752953 -0.64297736
3.7672698 6.2549405 -0.64210141
3.8023994 6.2686267 -0.64472932
3.832459 6.2736526 -0.64648134
3.8521512 6.2615805 -0.64648134
3.8770487 6.2579165 -0.64735734
3.8966911 6.2457047 -0.64735734
3.9162922 6.2334328 -0.64735734
3.9411802 6.2295175 -0.64823329
3.9553809 6.2087026 -0.64735734
3.9748654 6.1962466 -0.64735734
4.0040417 6.2011619 -0.6491093
4.0126424 6.1718497 -0.64735734
4.037467 6.1675482 -0.64823329
4.0568247 6.1548324 -0.64823329
4.0816479 6.1503582 -0.6491093
4.1064825 6.1457882 -0.64998525
4.1313319 6.1411214 -0.65086126
4.1506033 6.1281128 -0.65086126
4.1866732 6.1397328 -0.65348929
4.2115779 6.1347628 -0.65436524
4.2364926 6.1296973 -0.65524125
4.250041 6.1081796 -0.65436524
4.2749233 6.1029572 -0.65524125
4.31704 6.1220603 -0.65874523
4.3304839 6.1003451 -0.65786922
4.3554182 6.0948162 -0.65874523
4.380363 6.0891886 -0.65962118
4.3994699 6.075398 -0.65962118
4.4185362 6.0615454 -0.65962118
4.4375563 6.0476351 -0.65962118
4.4565325 6.0336652 -0.65962118
4.481411 6.0276279 -0.66049719
4.5003242 6.0135202 -0.66049719
4.5251889 6.0073075 -0.66137314
4.5490093 6.0017948 -0.66224921
4.5678411 5.9874749 -0.66224921
4.5866303 5.9730935 -0.66224921
4.5992799 5.9507737 -0.66137314
4.6118374 5.9284315 -0.66049719
4.6242967 5.9060712 -0.65962118
4.648993 5.8993392 -0.66049719
4.6736956 5.892508 -0.66137314
4.692183 5.8777971 -0.66137314
4.7293448 5.886323 -0.66400117
4.7540765 5.8791828 -0.66487712
4.7850976 5.8796721 -0.66662914
4.8098593 5.8723154 -0.66750515
4.8282828 5.8571768 -0.66750515
4.8466616 5.8419781 -0.66750515
4.8713741 5.8343701 -0.66838109
4.889678 5.8190384 -0.66838109
4.9208016 5.8188596 -0.67013305
4.9455132 5.8109589 -0.67100906
4.957263 5.7878284 -0.67013305
4.9874206 5.7881861 -0.67188507
4.999053 5.7649641 -0.67100906
5.010591 5.7417235 -0.67013305
5.0286036 5.725955 -0.67013305
5.0399694 5.7026658 -0.6692571
5.0512414 5.6793594 -0.66838109
5.0823445 5.6783085 -0.67013305
5.1001601 5.6623125 -0.67013305
5.1246128 5.6536436 -0.67100906
5.1423478 5.6375175 -0.67100906
5.1600351 5.6213331 -0.67100906
5.1776681 5.6050954 -0.67100906
5.2020354 5.596096 -0.67188507
5.2195892 5.5797267 -0.67188507
5.2507482 5.5778093 -0.67363709
5.2613959 5.5540528 -0.67276108
5.2650704 5.5230765 -0.67100906
5.2686052 5.4921298 -0.6692571
5.2858324 5.4755521 -0.6692571
5.2960658 5.4517746 -0.66838109
5.3131685 5.4351082 -0.66838109
5.3232303 5.4112897 -0.66750515
5.3331976 5.3874583 -0.66662914
5.3571258 5.3777356 -0.66750515
5.3739929 5.3608799 -0.66750515
5.369586 5.3229299 -0.66487712
5.322412 5.2431183 -0.65699321
5.2961483 5.1845593 -0.65173727
5.2909875 5.147058 -0.6491093
5.2856441 5.1096406 -0.64648134
5.2720523 5.0663242 -0.64297736
5.2735329 5.0359778 -0.6412254
5.2821035 5.0125275 -0.64034939
5.2833295 4.9822407 -0.63859743
5.2844167 4.9519963 -0.63684547
5.2780786 4.9150023 -0.63421744
5.2934928 4.8983979 -0.63421744
5.2941914 4.8682566 -0.63246548
5.3021045 4.844882 -0.63158953
5.3099232 4.8215055 -0.63071346
5.3176498 4.7981253 -0.62983751
5.3326988 4.781394 -0.62983751
5.331986 4.7522984 -0.62808555
5.3543477 4.7421269 -0.6289615
5.3617401 4.7187023 -0.62808555
5.3690405 4.6952753 -0.62720954
5.3754311 4.6727872 -0.62633353
5.3825431 4.6493688 -0.62545753
5.3903723 4.6250057 -0.62458152
5.4124556 4.6145124 -0.62545753
5.4117255 4.5846066 -0.62370557
5.4261007 4.5675836 -0.62370557
5.4404225 4.5505157 -0.62370557
5.4393706 4.5206656 -0.62195361
5.4381833 4.49087 -0.62020159
5.4522662 4.4737616 -0.62020159
5.4577951 4.4512696 -0.61932558
5.4640121 4.4278312 -0.61844963
5.4701381 4.4043946 -0.61757362
5.4839468 4.3871889 -0.61757362
5.4899058 4.363739 -0.61669767
5.495769 4.3402972 -0.61582166
5.5093765 4.3230114 -0.61582166
5.5229321 4.3056803 -0.61582166
5.5206795 4.2761092 -0.61406964
5.5340872 4.2587433 -0.61406964
5.539525 4.2352872 -0.61319369
5.5448694 4.2118387 -0.61231768
5.5501242 4.188396 -0.61144173
5.5552835 4.1649647 -0.61056572
5.5603533 4.1415396 -0.60968971
5.5573206 4.1122012 -0.60793775
5.5621848 4.0888228 -0.60706174
5.5589147 4.059577 -0.60530978
5.5555153 4.0303926 -0.60355777
5.5519862 4.0012722 -0.60180581
5.5564284 3.9780123 -0.6009298
5.56078 3.9547644 -0.60005379
5.5650415 3.9315257 -0.59917778
5.5855207 3.919744 -0.60005379
5.5896325 3.8964841 -0.59917778
5.6018472 3.8789032 -0.59917778
5.5975895 3.8499961 -0.59742582
5.6096582 3.8323901 -0.59742582
5.6051855 3.8035593 -0.59567386
5.6171045 3.7859352 -0.59567386
5.6206942 3.7627268 -0.59479785
5.6241913 3.7395358 -0.59392184
5.6359124 3.7218468 -0.59392184
5.6392469 3.6986606 -0.59304589
5.6424909 3.6754899 -0.59216988
5.6456475 3.652333 -0.59129393
5.6487117 3.6291952 -0.59041792
5.6684842 3.6167881 -0.59129393
5.6707764 3.5946212 -0.59041792
5.6820402 3.5767891 -0.59041792
5.693871 3.5579257 -0.59041792
5.7050219 3.5400186 -0.59041792
5.6991525 3.5116282 -0.5886659
5.7101555 3.4937074 -0.5886659
5.7296162 3.4809248 -0.58954191
5.7319946 3.4577603 -0.5886659
5.7342844 3.4346154 -0.58778995
5.7536077 3.4216764 -0.5886659
5.7557502 3.3985205 -0.58778995
5.766398 3.3804226 -0.58778995
5.7683806 3.3572776 -0.58691394
5.7789006 3.3391376 -0.58691394
5.7801418 3.3170195 -0.58603799
5.781878 3.2939143 -0.58516198
5.800868 3.2806387 -0.58603799
5.8024602 3.2575204 -0.58516198
5.8121009 3.240288 -0.58516198
5.8135357 3.2171907 -0.58428597
5.8230548 3.1999285 -0.58428597
5.8243332 3.1768501 -0.58340997
5.8255253 3.1537924 -0.58253396
5.8441806 3.1401889 -0.58340997
5.8446822 3.1181469 -0.58253396
5.8544488 3.099771 -0.58253396
5.8636193 3.0823882 -0.58253396
5.8732748 3.0639501 -0.58253396
5.8646498 3.0373461 -0.580782
5.8653011 3.0143573 -0.57990605
5.8653464 2.9924126 -0.57903004
5.8658304 2.9694734 -0.57815403
5.8751311 2.9510288 -0.57815403
5.8843737 2.9325554 -0.57815403
5.8841181 2.9106703 -0.57727802
5.8842916 2.8877802 -0.57640207
5.8838773 2.865947 -0.57552606
5.8928528 2.8474467 -0.57552606
5.892293 2.8256433 -0.57465011
5.8831491 2.7985611 -0.57289809
5.9009213 2.7843139 -0.5737741
5.9006171 2.7615407 -0.57289809
5.9092641 2.7429881 -0.57289809
5.9269004 2.7285769 -0.5737741
5.9354429 2.7099445 -0.5737741
5.9348531 2.6871741 -0.57289809
5.9250903 2.6603565 -0.57114613
5.9334197 2.6417274 -0.57114613
5.9508018 2.6270981 -0.57202208
5.9590254 2.6083913 -0.57202208
5.9580531 2.5856903 -0.57114613
5.975297 2.5708978 -0.57202208
5.9741821 2.5482035 -0.57114613
5.9821577 2.5294235 -0.57114613
5.9900737 2.5106187 -0.57114613
5.9979324 2.4917862 -0.57114613
5.9965191 2.4691391 -0.57027012
6.0042472 2.4502866 -0.57027012
5.9938679 2.4228971 -0.5685181
5.9922028 2.4003518 -0.56764215
5.9904556 2.3778379 -0.56676614
5.988626 2.3553619 -0.56589019
5.9867144 2.3329177 -0.56501418
5.9940138 2.3140996 -0.56501418
6.0012536 2.2952585 -0.56501418
5.9991202 2.2728627 -0.56413817
5.9969049 2.2505031 -0.56326216
6.0132828 2.2351241 -0.56413817
6.0206614 2.2151721 -0.56413817
6.0182304 2.1928375 -0.56326216
6.0250902 2.1739182 -0.56326216
6.0131292 2.1482744 -0.56151021
6.0292387 2.1326993 -0.56238621
6.0265074 2.1104529 -0.56151021
6.0236955 2.088248 -0.5606342
6.0302267 2.0693119 -0.5606342
6.0366983 2.0503554 -0.5606342
6.0242238 2.0250366 -0.55888224
6.0403595 2.0081894 -0.55975825
6.01825 1.9798653 -0.55713022
6.005496 1.9547805 -0.55537826
6.0210896 1.9389588 -0.55625427
6.0081677 1.9139872 -0.55450231
6.0046501 1.8921069 -0.5536263
5.9915447 1.8673037 -0.55187428
5.9973812 1.8484727 -0.55187428
5.9939485 1.8256733 -0.55099833
5.9901152 1.8039623 -0.55012232
5.9862065 1.7822907 -0.54924637
5.9726644 1.7578489 -0.54749435
5.9685917 1.7362951 -0.54661834
5.9548688 1.712032 -0.54486638
5.9605131 1.6922766 -0.54486638
5.9562097 1.6708506 -0.54399043
5.9518299 1.6494682 -0.54311436
5.9473743 1.6281328 -0.54223841
5.942843 1.6068416 -0.5413624
5.9382381 1.5855922 -0.54048645
5.9528222 1.5694695 -0.5413624
5.9384432 1.5457401 -0.53961045
5.9435358 1.5260402 -0.53961045
5.9386444 1.5049148 -0.53873444
5.9433436 1.4862489 -0.53873444
5.9383111 1.4651847 -0.53785843
5.9525647 1.448876 -0.53873444
5.9377136 1.4255184 -0.53698242
5.9424081 1.4058216 -0.53698242
5.9467955 1.3871443 -0.53698242
5.9414158 1.3662239 -0.53610647
5.9359636 1.3453481 -0.53523046
5.949882 1.3288684 -0.53610647
5.9540277 1.3101681 -0.53610647
5.948379 1.2893445 -0.53523046
5.9524002 1.2706519 -0.53523046
5.9466147 1.2498951 -0.53435451
5.9310021 1.2271714 -0.53260249
5.9252768 1.2055119 -0.53172648
5.9290352 1.1868895 -0.53172648
5.9327345 1.1682582 -0.53172648
5.9168153 1.1458274 -0.52997452
5.9106007 1.1253687 -0.52909857
5.9336896 1.1104605 -0.53085053
5.9275422 1.088976 -0.52997452
5.930934 1.0703498 -0.52997452
5.934267 1.0517131 -0.52997452
5.9277282 1.0313557 -0.52909857
5.9309387 1.0127293 -0.52909857
5.9439158 0.99573582 -0.52997452
5.9568443 0.9786737 -0.53085053
5.9500542 0.95837194 -0.52997452
5.9530358 0.93967289 -0.52997452
5.9362693 0.91792285 -0.52822256
5.929275 0.89777601 -0.52734655
5.932066 0.87914538 -0.52734655
5.9448071 0.86089796 -0.52822256
5.9376197 0.84081918 -0.52734655
5.9303641 0.82079685 -0.52647054
5.9230423 0.80082566 -0.52559459
5.9156528 0.78091139 -0.52471858
5.9081969 0.76105148 -0.52384263
5.9006748 0.74124324 -0.52296662
5.8930864 0.72149271 -0.52209061
5.8854327 0.70179427 -0.5212146
5.8777132 0.68215394 -0.52033865
5.8798275 0.66368634 -0.52033865
5.8719811 0.64412314 -0.51946265
5.8839908 0.62570202 -0.52033865
5.876018 0.60618991 -0.51946265
5.8778934 0.58772796 -0.51946265
5.8598804 0.56734037 -0.51771069
5.8616343 0.54892653 -0.51771069
5.8534088 0.52960968 -0.51683468
5.8649673 0.51208562 -0.51771069
5.8566208 0.49282363 -0.51683468
5.8482108 0.4736191 -0.51595867
5.8496699 0.45524243 -0.51595867
5.8510714 0.43686125 -0.51595867
5.8424783 0.41777083 -0.51508266
5.8437619 0.39941242 -0.51508266
5.8251071 0.37975678 -0.5133307
5.8362141 0.36206996 -0.51420671
5.8373227 0.34373429 -0.51420671
5.8383169 0.32641417 -0.51420671
5.8293657 0.30754447 -0.5133307
5.8303032 0.28923061 -0.5133307
5.8411341 0.27137342 -0.51420671
5.832005 0.2525917 -0.5133307
5.8327699 0.2342698 -0.5133307
5.8334394 0.21696088 -0.5133307
5.8241367 0.19829568 -0.51245469
5.8246994 0.18101254 -0.51245469
5.8152814 0.1624358 -0.51157868
5.8157377 0.14518186 -0.51157868
5.796247 0.1264742 -0.50982672
5.7866559 0.10807925 -0.50895077
5.796927 0.090052493 -0.50982672
5.7872081 0.07272815 -0.50895077
5.7774372 0.055462275 -0.50807476
5.7676153 0.038252268 -0.50719875
5.777668 0.020168478 -0.50807476
5.7677412 0.003018792 -0.50719875
5.7776837 -0.015125975 -0.50807476
5.7776132 -0.032268614 -0.50807476
5.737639 -0.050071616 -0.50457078
5.747426 -0.06721177 -0.50544679
5.7272658 -0.084971935 -0.50369483
5.736948 -0.10214199 -0.50457078
5.71668 -0.11974738 -0.50281882
5.625186 -0.18660663 -0.49493492
5.6445179 -0.20401569 -0.49668691
5.6239414 -0.22096525 -0.49493492
5.6033549 -0.23680957 -0.4931829
5.5926323 -0.25395992 -0.49230692
5.5917597 -0.27250439 -0.49230692
5.5809274 -0.28955388 -0.49143091
5.5600972 -0.30599067 -0.48967892
5.5292745 -0.32172081 -0.48705098
5.5182934 -0.33848003 -0.48617497
5.5172029 -0.35581458 -0.48617497
5.4862413 -0.37112859 -0.48354703
5.4751115 -0.38765872 -0.48267102
5.4539981 -0.40338776 -0.48091903
5.4427719 -0.41975406 -0.48004305
5.4314966 -0.43605372 -0.47916704
5.4201732 -0.45228675 -0.47829109
5.3988767 -0.46759337 -0.47653911
5.3874588 -0.48366138 -0.4756631
5.3660755 -0.49874038 -0.47391111
5.3644819 -0.51559591 -0.47391111
5.3529234 -0.53146219 -0.47303513
5.3214979 -0.54523027 -0.47040716
5.3097539 -0.56182575 -0.46953115
5.3079629 -0.57850403 -0.46953115
5.2862167 -0.59387845 -0.46777916
5.2744293 -0.60933942 -0.46690318
5.2725983 -0.62498629 -0.46690318
5.2508316 -0.63914019 -0.46515122
5.2387986 -0.65531266 -0.46427521
5.2268338 -0.67050004 -0.46339923
5.2148247 -0.68561876 -0.46252322
5.2126451 -0.70199823 -0.46252322
5.1808095 -0.71428907 -0.45989525
5.1785398 -0.73056155 -0.45989525
5.1563706 -0.74488169 -0.45814329
5.1540051 -0.76107723 -0.45814329
5.1515884 -0.77726525 -0.45814329
5.1294303 -0.79041135 -0.4563913
5.1269221 -0.80652195 -0.4563913
5.1145272 -0.8210457 -0.4555153
5.1119223 -0.83710945 -0.4555153
5.099442 -0.85152417 -0.45463932
5.0967417 -0.8675403 -0.45463932
5.0743613 -0.88014311 -0.45288736
5.0714145 -0.89696538 -0.45288736
5.048964 -0.90936178 -0.45113537
5.0264859 -0.92162603 -0.44938338
5.0235658 -0.93741256 -0.44938338
5.0108089 -0.95133179 -0.44850737
4.9980145 -0.96518016 -0.44763136
4.9947863 -0.98174888 -0.44763136
4.9721408 -0.99353182 -0.44587937
4.9494705 -1.005182 -0.44412741
4.9365325 -1.018713 -0.44325143
4.9333076 -1.0342165 -0.44325143
4.9202909 -1.0476354 -0.44237542
4.907239 -1.0609826 -0.44149944
4.8941512 -1.0742581 -0.44062343
4.8810296 -1.0874621 -0.43974748
4.8581562 -1.0983974 -0.43799549
4.8447781 -1.1122725 -0.43711948
4.8315582 -1.1252278 -0.4362435
4.8183045 -1.1381109 -0.43536749
4.8147049 -1.1532425 -0.43536749
4.791698 -1.163661 -0.43361551
4.7783461 -1.1763275 -0.43273956
4.7647538 -1.1897534 -0.43186355
4.7609925 -1.2047163 -0.43186355
4.7378855 -1.2147195 -0.43011156
4.734046 -1.229598 -0.43011156
4.7205262 -1.2419299 -0.42923558
4.7069755 -1.2541889 -0.42835957
4.703012 -1.26897 -0.42835957
4.689393 -1.2811136 -0.42748362
4.675518 -1.2939999 -0.42660761
4.6618371 -1.3059949 -0.4257316
4.6385441 -1.3151993 -0.42397961
4.6343894 -1.3297651 -0.42397961
4.6110559 -1.3387629 -0.42222762
4.5972695 -1.3504348 -0.42135167
4.5736694 -1.3599941 -0.41959968
4.5502954 -1.3686174 -0.41784769
4.5459733 -1.3829057 -0.41784769
4.5320849 -1.3942515 -0.41697168
4.5276828 -1.4084824 -0.41697168
4.5137329 -1.4197109 -0.4160957
4.5092506 -1.4338841 -0.4160957
4.4857564 -1.4419461 -0.41434374
4.4714766 -1.4537336 -0.41346774
4.4479599 -1.4615545 -0.41171575
4.443346 -1.4755211 -0.41171575
4.429245 -1.486304 -0.41083977
4.4151196 -1.4970125 -0.40996376
4.4009709 -1.5076474 -0.40908781
4.3962131 -1.521466 -0.40908781
4.3726048 -1.5286945 -0.40733582
4.3583875 -1.5391068 -0.40645981
4.3347654 -1.5460984 -0.40470782
4.3202434 -1.5570869 -0.40383187
4.31533 -1.5706517 -0.40383187
4.3010244 -1.5807645 -0.40295583
4.2960367 -1.5942687 -0.40295583
4.2816787 -1.6042619 -0.40207982
4.2579832 -1.6106565 -0.40032786
4.2622085 -1.6275791 -0.40120387
4.2477789 -1.6373782 -0.40032786
4.2240467 -1.6434908 -0.39857587
4.218863 -1.6567528 -0.39857587
4.2043767 -1.6663283 -0.39769989
4.1898718 -1.6758292 -0.39682388
4.1753492 -1.6852553 -0.39594793
4.1608081 -1.6946068 -0.39507192
4.1554637 -1.70767 -0.39507192
4.1500783 -1.7207164 -0.39507192
4.1259708 -1.7267774 -0.39331993
4.1205258 -1.739731 -0.39331993
4.1058755 -1.7487638 -0.39244395
4.082056 -1.7537897 -0.390692
4.0673857 -1.7626441 -0.38981596
4.0618281 -1.7754135 -0.38981596
4.0471158 -1.784147 -0.38894001
4.0323882 -1.7928056 -0.388064
4.0267358 -1.8054649 -0.388064
4.0119672 -1.8140022 -0.38718802
3.988121 -1.8183321 -0.38543603
3.9733377 -1.826691 -0.38456002
3.9675794 -1.8391646 -0.38456002
3.9527576 -1.8474023 -0.38368407
3.9382465 -1.8548776 -0.38280806
3.9324 -1.8672407 -0.38280806
3.9175296 -1.8752844 -0.38193208
3.902647 -1.8832531 -0.38105607
3.887753 -1.8911468 -0.38018006
3.8817928 -1.9033512 -0.38018006
3.8671973 -1.9104482 -0.37930408
3.8611765 -1.9225879 -0.37930408
3.8373108 -1.9257723 -0.37755212
3.8401308 -1.9423141 -0.37842807
3.8165994 -1.9446546 -0.37667611
3.80161 -1.9520848 -0.37580013
3.7954586 -1.9640183 -0.37580013
