# .PCD v0.7 - Point Cloud Data file format
VERSION 0.7
FIELDS x y z
SIZE 4 4 4
TYPE F F F
COUNT 1 1 1
WIDTH 742
HEIGHT 1
VIEWPOINT 0 0 0 1 0 0 0
POINTS 742
DATA ascii
9.8612356 6.3770785 -0.62168133
9.8896255 6.3514605 -0.62220997
9.9095287 6.3203621 -0.62220997
9.928237 6.2909341 -0.62220997
9.9564028 6.2650328 -0.6227386
9.9771252 6.2319789 -0.6227386
9.9966564 6.2006011 -0.6227386
10.024589 6.1744041 -0.62326729
10.043935 6.1428828 -0.62326729
10.063183 6.1113005 -0.62326729
10.082334 6.0796528 -0.62326729
10.109954 6.0530753 -0.62379593
10.128919 6.021286 -0.62379593
10.156384 5.994513 -0.6243245
10.175164 5.9625778 -0.6243245
10.193848 5.9305797 -0.6243245
10.221078 5.9035172 -0.62485319
10.247211 5.8781352 -0.62538183
10.274303 5.8508573 -0.62591046
10.292632 5.818553 -0.62591046
10.310863 5.7861862 -0.62591046
10.336709 5.7604256 -0.62643909
10.354754 5.7279253 -0.62643909
10.371702 5.6971788 -0.62643909
10.398316 5.6693492 -0.62696773
10.42486 5.6414037 -0.62749636
10.442533 5.6086226 -0.62749636
10.467939 5.582315 -0.62802505
10.494249 5.5540743 -0.62855363
10.510681 5.5229149 -0.62855363
10.527982 5.4898643 -0.62855363
10.561962 5.467782 -0.62961096
10.579084 5.4345808 -0.62961096
10.595163 5.4031649 -0.62961096
10.620996 5.3743634 -0.63013959
10.637829 5.3409672 -0.63013959
10.663494 5.3119702 -0.63066822
10.679205 5.2803149 -0.63066822
10.704708 5.2511339 -0.63119686
10.729218 5.2237229 -0.63172549
10.745578 5.1899872 -0.63172549
10.778938 5.1667161 -0.63278276
10.804134 5.1371179 -0.63331139
10.81119 5.0988874 -0.63278276
10.836199 5.0691314 -0.63331139
10.861131 5.0392632 -0.63384008
10.88598 5.009294 -0.63436872
10.910747 4.9792175 -0.63489735
10.926336 4.9449129 -0.63489735
10.950927 4.9146533 -0.63542598
10.975438 4.8842826 -0.63595462
10.990727 4.8497806 -0.63595462
11.024206 4.8232355 -0.63701195
11.039306 4.7885752 -0.63701195
11.063467 4.7578177 -0.63754052
11.087547 4.7269506 -0.63806921
11.11154 4.6959844 -0.63859785
11.126237 4.6610551 -0.63859785
11.150049 4.6299047 -0.63912648
11.173773 4.5986552 -0.63965511
11.206659 4.5710692 -0.64071238
11.221755 4.5338836 -0.64071238
11.245214 4.5023212 -0.64124107
11.277867 4.4743328 -0.64229834
11.301164 4.4425306 -0.64282697
11.315063 4.4070072 -0.64282697
11.338168 4.3750353 -0.64335561
11.370511 4.3465271 -0.64441288
11.384111 4.310781 -0.64441288
11.406949 4.2784996 -0.64494151
11.429694 4.2461224 -0.6454702
11.453083 4.2116451 -0.64599878
11.47564 4.1790628 -0.64652741
11.498108 4.1463747 -0.6470561
11.520483 4.1135869 -0.64758474
11.542761 4.0807099 -0.64811337
11.583802 4.0543208 -0.64969927
11.605917 4.0211806 -0.65022796
11.627939 3.9879358 -0.65075654
11.659324 3.9578025 -0.65181386
11.681164 3.9243422 -0.6523425
11.70359 3.8887298 -0.65287113
11.725237 3.8550584 -0.65339977
11.737289 3.8182058 -0.65339977
11.758732 3.784375 -0.6539284
11.799109 3.7565055 -0.6555143
11.810853 3.7194157 -0.6555143
11.832015 3.6852589 -0.65604299
11.872164 3.6568904 -0.65762889
11.893778 3.6204112 -0.65815753
11.914655 3.5859082 -0.65868622
11.945004 3.5541518 -0.65974343
11.965693 3.5194223 -0.66027212
11.986279 3.4846036 -0.66080076
12.016361 3.4524479 -0.66185802
12.037351 3.4153092 -0.66238666
12.076867 3.3855591 -0.66397256
12.087444 3.3475983 -0.66397256
12.107533 3.3122454 -0.66450125
12.137159 3.2794042 -0.66555852
12.157051 3.2438288 -0.66608715
12.176838 3.2081668 -0.66661578
12.196522 3.1724067 -0.66714442
12.206974 3.1319466 -0.66714442
12.245794 3.1009381 -0.66873032
12.294229 3.0721316 -0.67084491
12.303819 3.0334954 -0.67084491
7.2788882 9.9745283 -0.22148539
7.3235788 9.9044819 -0.22094737
7.3546615 9.881424 -0.22094737
7.3719592 9.8435545 -0.2205887
7.4028502 9.820344 -0.2205887
7.4215755 9.7811098 -0.22023001
7.4461966 9.7498007 -0.22005068
7.4646058 9.7105045 -0.21969199
7.488955 9.6790991 -0.21951266
7.513185 9.6476336 -0.21933331
7.5372868 9.6161146 -0.21915397
7.5612655 9.5845404 -0.21897464
7.585124 9.552906 -0.2187953
7.8393316 9.2014112 -0.21682255
7.8681941 9.1767435 -0.21682255
7.882329 9.1382122 -0.21646386
7.9109964 9.1134062 -0.21646386
7.926435 9.0734463 -0.21610519
7.9549036 9.0484982 -0.21610519
7.9766598 9.0159788 -0.21592584
7.9982986 8.9834051 -0.21574651
8.0264797 8.9582348 -0.21574651
8.0411949 8.9181213 -0.21538782
8.06917 8.8928165 -0.21538782
8.0970659 8.867424 -0.21538782
8.1181221 8.8345785 -0.21520849
8.1458349 8.8090324 -0.21520849
8.1666603 8.7760763 -0.21502915
8.1941891 8.7503786 -0.21502915
8.2132587 8.718751 -0.2148498
8.2406111 8.6929026 -0.2148498
8.2609768 8.6597385 -0.21467045
8.2812204 8.6265278 -0.21449113
8.2958832 8.5846405 -0.21413244
8.3158398 8.5513697 -0.21395309
8.3356733 8.518055 -0.21377377
8.3819914 8.4584093 -0.21359442
8.4085217 8.4320364 -0.21359442
8.434968 8.4055805 -0.21359442
8.4613361 8.3790369 -0.21359442
8.4804935 8.3453979 -0.21341507
8.5066681 8.318717 -0.21341507
8.5169735 8.2795038 -0.2130564
8.5429401 8.2527075 -0.2130564
8.5688276 8.2258263 -0.2130564
8.5946293 8.198863 -0.2130564
8.6203432 8.1718235 -0.2130564
8.6386938 8.1378469 -0.21287706
8.6642151 8.1106691 -0.21287706
8.6823339 8.0765972 -0.21269771
8.7076664 8.0492792 -0.21269771
8.7329102 8.0218849 -0.21269771
8.7506819 7.9876709 -0.21251838
8.7683258 7.9534254 -0.21233904
8.7993135 7.9340663 -0.21251838
8.8167515 7.8997092 -0.21233904
8.834053 7.8653288 -0.21215969
8.8587208 7.8375344 -0.21215969
8.8819351 7.8112173 -0.21215969
8.9064331 7.7832727 -0.21215969
8.9143925 7.7436957 -0.21180101
8.9386711 7.7156582 -0.21180101
8.9731436 7.6909142 -0.21198036
8.9896469 7.6562047 -0.21180101
9.0136576 7.6279225 -0.21180101
9.0375757 7.5995698 -0.21180101
9.0537319 7.5647311 -0.21162169
9.0774546 7.5362482 -0.21162169
9.0997744 7.5092831 -0.21162169
9.1233225 7.4806557 -0.21162169
9.1467772 7.4519591 -0.21162169
9.1623697 7.4168978 -0.21144234
9.1778364 7.3818073 -0.211263
9.200984 7.3529353 -0.211263
9.2318678 7.3302126 -0.21144234
9.2469988 7.2949824 -0.211263
9.2777395 7.2720661 -0.21144234
9.2926521 7.2367373 -0.211263
9.307436 7.2013869 -0.21108365
9.3379393 7.1782064 -0.211263
9.3524971 7.1427684 -0.21108365
9.3748884 7.1133533 -0.21108365
9.397192 7.0838633 -0.21108365
9.4194021 7.0543036 -0.21108365
9.4495373 7.0306473 -0.211263
9.4715776 7.0009274 -0.211263
9.4935236 6.971139 -0.211263
9.515379 6.941277 -0.211263
9.5290442 6.9054794 -0.21108365
9.5588045 6.8813529 -0.211263
9.5722418 6.8454747 -0.21108365
9.6018496 6.8211613 -0.211263
9.631403 6.7967248 -0.21144234
9.6445227 6.7606912 -0.211263
9.6657095 6.7303653 -0.211263
9.6868076 6.6999636 -0.211263
9.8807268 6.4288898 -0.21144234
9.9092751 6.4032407 -0.21162169
9.9282322 6.3738079 -0.21162169
9.9566355 6.3479629 -0.21180101
9.96698 6.313045 -0.21162169
9.986762 6.2817035 -0.21162169
10.024502 6.2591395 -0.21198036
10.03562 6.2223439 -0.21180101
10.056197 6.1890326 -0.21180101
10.092653 6.1678391 -0.21215969
10.111979 6.1361036 -0.21215969
10.131207 6.1043029 -0.21215969
10.141756 6.0673084 -0.21198036
10.177959 6.0456319 -0.21233904
10.188288 6.0085497 -0.21215969
10.215741 5.9815669 -0.21233904
10.242088 5.9562526 -0.21251838
10.260752 5.9240441 -0.21251838
10.279311 5.8917818 -0.21251838
10.315149 5.8693509 -0.21287706
10.323812 5.8338022 -0.21269771
10.350811 5.8062286 -0.21287706
10.376729 5.7803545 -0.2130564
10.412841 5.7150459 -0.2130564
10.430743 5.6823068 -0.2130564
10.456352 5.6560869 -0.21323574
10.482881 5.6279359 -0.21341507
10.517179 5.606216 -0.21377377
10.5259 5.5684743 -0.21359442
10.568586 5.5086923 -0.21377377
10.593765 5.4819016 -0.21395309
10.610931 5.4486008 -0.21395309
10.645815 5.424314 -0.21431178
10.653879 5.3863335 -0.21413244
10.678752 5.3591805 -0.21431178
10.695538 5.3256025 -0.21431178
10.729215 5.302712 -0.21467045
10.745822 5.2689757 -0.21467045
10.761407 5.237071 -0.21467045
10.795816 5.2119284 -0.21502915
10.821155 5.1823072 -0.21520849
10.83738 5.1482882 -0.21520849
10.853502 5.114213 -0.21520849
10.878572 5.0843258 -0.21538782
10.903563 5.0543265 -0.21556716
10.919388 5.0200491 -0.21556716
10.953299 4.9940181 -0.21592584
10.968935 4.9595795 -0.21592584
10.984462 4.9250975 -0.21592584
11.009018 4.8946233 -0.21610519
11.033487 4.8640485 -0.21628453
11.067036 4.8373728 -0.21664321
11.08218 4.802578 -0.21664321
11.115584 4.7756338 -0.21700189
11.130534 4.7406864 -0.21700189
11.154583 4.7095866 -0.21718122
11.178546 4.6783829 -0.21736057
11.202425 4.647069 -0.21753992
11.21697 4.6118498 -0.21753992
11.249921 4.5841355 -0.21789859
11.273537 4.5525165 -0.21807793
11.297066 4.5207939 -0.21825728
11.311996 4.4833035 -0.21825728
11.353946 4.4587045 -0.2187953
11.358578 4.4193897 -0.21861595
11.381734 4.3872824 -0.2187953
11.404801 4.355073 -0.21897464
11.427779 4.3227563 -0.21915397
11.450667 4.2903385 -0.21933331
11.473462 4.2578249 -0.21951266
11.52432 4.235558 -0.22023001
11.537568 4.1993346 -0.22023001
11.542025 4.1576595 -0.22005068
11.564448 4.1247344 -0.22023001
11.586775 4.0917206 -0.22040936
11.618449 4.0618954 -0.22076803
11.640602 4.0286417 -0.22094737
11.66266 3.9952943 -0.22112672
11.69409 3.9650586 -0.22148539
11.715967 3.9314842 -0.22166474
11.737751 3.8978057 -0.22184408
11.768936 3.8671501 -0.22220275
11.781694 3.828104 -0.22220275
11.8127 3.7971938 -0.22256145
11.834099 3.7630968 -0.22274078
11.8554 3.7288966 -0.22292012
11.886152 3.6975701 -0.22327881
11.907266 3.6631527 -0.22345814
11.937845 3.6315486 -0.22381683
11.95877 3.596909 -0.22399616
11.980217 3.5600774 -0.22417551
12.000936 3.5252373 -0.22435483
12.031155 3.4930959 -0.22471352
12.081722 3.4256144 -0.22525154
12.092424 3.3876441 -0.22525154
12.132503 3.3555179 -0.22578958
12.152628 3.3200231 -0.2259689
12.172651 3.2844353 -0.22614825
12.202233 3.2513227 -0.22650693
12.222055 3.2155185 -0.22668627
12.251452 3.1821294 -0.22704495
12.280759 3.1485932 -0.22740363
12.309976 3.1149044 -0.22776231
12.349251 3.0401247 -0.22812098
12.368458 3.0036693 -0.22830033
12.407001 2.9717872 -0.22883834
12.435738 2.9373941 -0.22919704
12.474118 2.9051116 -0.22973505
12.502372 2.8267012 -0.2299144
12.540466 2.7939351 -0.23045242
12.568714 2.7588139 -0.2308111
12.624917 2.6881158 -0.23152846
12.688884 2.5769722 -0.23224582
12.716526 2.5410109 -0.23260449
12.79927 2.4300168 -0.23368055
12.826497 2.393465 -0.23403922
8.580698 8.6983099 1.4990386
8.6079807 8.6713114 1.4990386
8.6281643 8.6372061 1.497821
8.6552582 8.610055 1.497821
8.6752043 8.5758448 1.4966031
8.6950245 8.5415897 1.4953854
8.7005072 8.493433 1.4917322
8.741394 8.4798813 1.4941677
8.7665176 8.4539051 1.4941677
8.7786999 8.41259 1.4917322
8.7835236 8.3644314 1.488079
8.8169661 8.3436203 1.4892967
8.8359022 8.309082 1.488079
9.0985756 8.0355968 1.4892967
9.1163168 8.0004234 1.488079
9.132534 7.9668164 1.4868612
9.1575155 7.9380884 1.4868612
9.1810274 7.9108844 1.4868612
9.2085876 7.8787856 1.4868612
9.2181711 7.8369565 1.4844257
9.2503271 7.8143649 1.4856435
9.2672272 7.7788858 1.4844257
9.2916183 7.7497358 1.4844257
9.3401318 7.6911969 1.4844257
9.3629093 7.6634517 1.4844257
9.3638363 7.6152139 1.4807725
9.5213432 7.4495969 1.4832079
9.5446987 7.4196501 1.4832079
9.5051193 7.3410888 1.473466
9.6442022 7.2568774 1.4807725
9.6749048 7.2324839 1.4819903
9.6896086 7.1961374 1.4807725
9.7121668 7.1656628 1.4807725
9.7106161 7.1175103 1.4771193
10.222233 6.3232398 1.4746838
10.250504 6.2962914 1.4759016
10.312601 6.2899013 1.4819903
10.332313 6.2574692 1.4819903
10.351919 6.2249804 1.4819903
10.379948 6.1975131 1.4832079
10.399365 6.164875 1.4832079
10.41868 6.1321764 1.4832079
10.446465 6.1044197 1.4844257
10.46559 6.0715728 1.4844257
10.492161 6.0454464 1.4856435
10.5111 6.0124569 1.4856435
10.538567 5.9843087 1.4868612
10.565963 5.9560418 1.488079
10.583587 5.9246678 1.488079
10.610826 5.8962073 1.4892967
10.628272 5.8647008 1.4892967
10.646644 5.831284 1.4892967
10.682353 5.8072863 1.4917322
10.700543 5.7737002 1.4917322
10.717628 5.7419224 1.4917322
10.744373 5.7128901 1.4929498
10.770057 5.6856165 1.4941677
10.787867 5.6517506 1.4941677
10.822199 5.6288795 1.4966031
10.839831 5.5948496 1.4966031
10.865213 5.5671964 1.497821
10.891499 5.5375295 1.4990386
10.908843 5.5032825 1.4990386
10.926077 5.4689865 1.4990386
7.5748167 9.8967113 1.0850545
7.6551695 9.8725367 1.0876566
7.667757 9.8248787 1.0850545
7.6985831 9.8007431 1.0850545
7.7293329 9.7765102 1.0850545
7.7476058 9.7365866 1.0833198
7.7470212 9.673316 1.0789831
8.5167599 8.6848917 1.059034
8.5370073 8.6509991 1.0581666
8.5571213 8.6170692 1.0572993
8.5630226 8.569005 1.0546973
8.6040316 8.5561085 1.0564319
8.630867 8.5290375 1.0564319
8.6362972 8.480938 1.0538299
8.6557665 8.4468079 1.0529625
8.6894102 8.4265099 1.0538299
8.7072039 8.393774 1.0529625
8.7263365 8.3594894 1.0520953
8.7669888 8.345768 1.0538299
8.7786884 8.3044939 1.0520953
8.8047333 8.2768764 1.0520953
8.9253531 8.0279655 1.0451565
9.051507 7.9912162 1.0512279
9.1175098 7.9006233 1.0503606
9.1531992 7.8286295 1.0486258
9.1777506 7.7998328 1.0486258
9.2098179 7.7773905 1.0494931
9.2265739 7.7420173 1.0486258
9.2508488 7.7129946 1.0486258
9.2673645 7.6775355 1.0477585
9.307065 7.5663466 1.0442891
9.3935423 7.4907131 1.0460237
9.448247 7.4377103 1.0468911
9.4715691 7.4079881 1.0468911
9.4947939 7.3781977 1.0468911
9.5100422 7.3422418 1.0460237
9.5708752 7.2462745 1.0451565
9.601553 7.2221613 1.0460237
9.6467419 7.1616898 1.0460237
9.6611748 7.1254373 1.0451565
9.7117567 7.0223889 1.0434217
10.17644 6.2924581 1.041687
10.22428 6.2335839 1.0425544
10.243814 6.2014298 1.0425544
10.263246 6.1692195 1.0425544
10.291132 6.1420488 1.0434217
10.310376 6.1096897 1.0434217
10.338105 6.0823226 1.0442891
10.357163 6.0498114 1.0442891
10.384736 6.0222435 1.0451565
10.40256 5.9914017 1.0451565
10.42133 5.958694 1.0451565
10.448661 5.9308443 1.0460237
10.467243 5.8979864 1.0460237
10.493389 5.8717704 1.0468911
10.511786 5.8387728 1.0468911
10.529062 5.8075595 1.0468911
10.555993 5.7792392 1.0477585
10.574099 5.7460451 1.0477585
10.600865 5.7175288 1.0486258
10.617785 5.6860471 1.0486258
10.644388 5.6573443 1.0494931
10.661129 5.6257339 1.0494931
10.687577 5.5968318 1.0503606
10.712975 5.569694 1.0512279
10.739275 5.5405755 1.0520953
10.755663 5.5086942 1.0520953
10.772918 5.474874 1.0520953
10.807856 5.4499707 1.0538299
10.824924 5.4159923 1.0538299
10.84987 5.388278 1.0546973
10.857803 5.3497701 1.0538299
10.89153 5.3262806 1.0555646
10.917173 5.2963829 1.0564319
10.941815 5.2682915 1.0572993
10.958311 5.2338929 1.0572993
10.983702 5.2037082 1.0581666
11.009013 5.1734099 1.059034
11.025213 5.1387954 1.059034
11.050344 5.1083155 1.0599014
11.066337 5.0735769 1.0599014
11.09129 5.0429115 1.0607687
11.116161 5.0121341 1.0616361
11.131854 4.9771838 1.0616361
11.165648 4.9502649 1.0633707
11.190264 4.9191742 1.0642381
11.214795 4.8879771 1.0651054
11.230097 4.8527174 1.0651054
11.254446 4.8213329 1.0659728
11.278706 4.7898488 1.0668402
11.31206 4.762125 1.0685749
11.326964 4.7265658 1.0685749
11.350965 4.6947622 1.0694423
11.384094 4.6666327 1.0711769
11.398698 4.6308479 1.0711769
11.422431 4.5987377 1.0720443
11.446873 4.5645213 1.0729116
11.470421 4.5322008 1.073779
11.49388 4.4997711 1.0746462
11.507959 4.4636421 1.0746462
11.540524 4.4346161 1.076381
11.56371 4.4018793 1.0772483
11.586802 4.3690462 1.0781157
11.619138 4.339592 1.0798504
11.642055 4.3065319 1.0807178
11.664882 4.2733593 1.081585
11.688355 4.2380466 1.0824524
11.710987 4.2046742 1.0833198
11.733527 4.171196 1.0841872
11.755969 4.1376233 1.0850545
11.778317 4.1039505 1.0859219
11.800571 4.0701728 1.0867893
11.832155 4.0395198 1.088524
11.854224 4.0055194 1.0893912
11.885647 3.9745741 1.091126
11.907532 3.9403467 1.0919933
11.93947 3.9070315 1.0937279
11.961164 3.8725743 1.0945953
11.982758 3.8380194 1.0954627
12.004253 3.8033609 1.09633
12.035155 3.7715905 1.0980648
12.046946 3.7337589 1.0980648
12.077664 3.7017348 1.0997994
12.098768 3.6666651 1.1006668
12.12995 3.6322365 1.1024015
12.150851 3.596941 1.1032689
12.181216 3.5643425 1.1050036
12.211493 3.531594 1.1067382
12.232105 3.4959533 1.1076056
12.262204 3.4629195 1.1093403
12.283216 3.4249153 1.1102076
12.313125 3.3915973 1.1119423
12.333331 3.3555157 1.1128097
12.353433 3.3193405 1.113677
12.383059 3.2856207 1.1154118
12.402956 3.2492292 1.1162791
12.442039 3.2177277 1.1188811
12.461739 3.1810904 1.1197485
12.491539 3.1446147 1.1214832
12.511026 3.1077542 1.1223506
12.54008 3.0731792 1.1240853
12.569039 3.0384464 1.1258199
12.588214 3.0012577 1.1266873
12.616975 2.966258 1.1284219
12.646154 2.9288945 1.1301566
12.665007 2.8913648 1.131024
12.703185 2.858125 1.1336261
12.731553 2.8225176 1.1353608
12.75009 2.7846344 1.1362281
12.778255 2.7487519 1.1379628
12.80632 2.7127194 1.1396976
12.82453 2.6745162 1.1405649
12.852387 2.6382165 1.1422997
12.880141 2.601774 1.1440343
12.908243 2.5629244 1.145769
12.945563 2.52809 1.148371
12.973007 2.4911678 1.1501057
13.00035 2.4540918 1.1518404
13.03738 2.4186921 1.1544424
13.093919 2.3866503 1.1587793
13.121375 2.3467269 1.160514
13.148306 2.3089418 1.1622486
13.175131 2.2710047 1.1639833
13.201846 2.2329216 1.165718
13.228453 2.1946995 1.1674527
13.254947 2.156332 1.1691874
13.281332 2.11782 1.1709222
13.307606 2.0791569 1.1726568
13.343616 2.0418563 1.1752589
13.359817 2.0014048 1.1761262
13.395609 1.9637614 1.1787283
13.473064 1.8431811 1.1839323
13.508412 1.8048056 1.1865344
13.533772 1.764938 1.1882691
13.559016 1.7249223 1.1900038
13.584142 1.6847719 1.1917385
13.609148 1.6444741 1.1934732
13.634035 1.6040424 1.195208
13.6687 1.5646033 1.1978099
13.693351 1.523854 1.1995447
13.737689 1.4851131 1.203014
13.762354 1.4416211 1.2047487
13.786638 1.4003946 1.2064835
13.810798 1.3590294 1.2082181
13.844752 1.3184644 1.2108202
13.868666 1.2767925 1.2125549
13.902378 1.235859 1.2151569
13.926044 1.1938885 1.2168916
13.959512 1.152588 1.2194936
13.982926 1.1103005 1.2212285
14.026079 1.0693985 1.2246978
14.059177 1.0275035 1.2272998
14.082211 0.98472959 1.2290345
14.115056 0.94247133 1.2316366
14.137832 0.89938384 1.2333713
14.180364 0.85737181 1.2368406
14.202738 0.81644017 1.2385755
14.245023 0.77398163 1.2420448
10.106054 6.2904663 0.61975169
10.117273 6.2534328 0.61923176
10.199001 6.2157307 0.62183142
10.209935 6.1784854 0.62131149
10.237855 6.151525 0.62183142
10.248555 6.114212 0.62131149
10.276304 6.0870767 0.62183142
10.295375 6.0547647 0.62183142
10.322971 6.0274229 0.62235129
10.350494 5.9999733 0.62287122
10.368253 5.969233 0.62287122
10.395624 5.9415884 0.62339115
10.414238 5.9089026 0.62339115
10.441453 5.8810539 0.62391108
10.46757 5.8549242 0.62443101
10.485914 5.8220077 0.62443101
10.503141 5.7908716 0.62443101
10.530042 5.7626429 0.62495095
10.548095 5.7295303 0.62495095
10.574832 5.7011056 0.62547088
10.591702 5.6697011 0.62547088
10.618279 5.6410909 0.62599081
10.643804 5.6142168 0.62651074
10.652542 5.5761166 0.62599081
10.686762 5.5536971 0.62703061
10.713034 5.5246701 0.6275506
10.729375 5.492867 0.6275506
10.755484 5.4636526 0.62807053
10.772596 5.4298329 0.62807053
10.798532 5.4004321 0.62859046
10.823452 5.3728104 0.62911034
10.849236 5.3431954 0.62963027
10.874016 5.3153644 0.6301502
10.890662 5.2811732 0.6301502
10.915281 5.2531695 0.63067013
10.940742 5.2231565 0.63119006
10.966121 5.1930356 0.63170999
10.991422 5.1628017 0.63222992
11.007588 5.1282425 0.63222992
11.03271 5.097827 0.63274986
11.057748 5.0673037 0.63326973
11.082704 5.036674 0.63378966
11.098474 5.0018287 0.63378966
11.123251 4.9710088 0.63430965
11.147943 4.9400873 0.63482958
11.172548 4.90906 0.63534945
11.19707 4.8779268 0.63586938
11.221509 4.846683 0.63638932
11.236682 4.8114023 0.63638932
11.260933 4.7799816 0.63690925
11.285098 4.748456 0.63742918
11.318396 4.7206645 0.63846904
11.342399 4.6889009 0.63898897
11.357074 4.6532416 0.63898897
11.390141 4.6250558 0.64002877
11.41468 4.5909882 0.64054871
11.438325 4.5587993 0.64106864
11.461878 4.5265126 0.64158863
11.485343 4.4941173 0.6421085
11.508715 4.4616246 0.64262843
11.522675 4.4254494 0.64262843
11.555189 4.396327 0.64366829
11.587632 4.3670497 0.64470816
11.601295 4.3306212 0.64470816
11.633574 4.3010874 0.64574802
11.647775 4.2624822 0.64574802
11.670498 4.2292671 0.64626789
11.702526 4.1993308 0.64730775
11.725072 4.1658859 0.64782768
11.747521 4.1323457 0.64834762
11.779306 4.1019902 0.64938748
11.792136 4.064961 0.64938748
11.82375 4.0343466 0.65042728
11.845827 4.0003791 0.65094721
11.877281 3.9694722 0.65198714
11.89986 3.9332001 0.65250707
11.92165 3.8988969 0.65302694
11.943341 3.8645015 0.65354687
11.964933 3.8300083 0.6540668
11.995949 3.7984262 0.65510666
12.017352 3.7637081 0.6556266
12.038657 3.7288873 0.65614653
12.069408 3.6969001 0.65718633
12.081601 3.6568584 0.65718633
12.112165 3.6246078 0.65822619
12.142644 3.5922067 0.65926605
12.173041 3.559644 0.66030592
12.193757 3.524159 0.66082585
12.21437 3.4885786 0.66134572
12.245095 3.4534733 0.66238564
12.275124 3.4203503 0.66342545
12.295438 3.3844171 0.66394538
12.315645 3.3483956 0.66446531
12.335749 3.3122804 0.66498524
12.365399 3.2786255 0.6660251
12.39496 3.244823 0.66706496
12.414763 3.2083623 0.6675849
12.444687 3.1721115 0.6686247
12.473961 3.1378746 0.66966462
12.493449 3.1010733 0.67018449
12.522532 3.0665557 0.67122436
12.551517 3.0318921 0.67226422
12.570694 2.9947622 0.67278415
12.6 2.9576266 0.67382401
12.618959 2.9202757 0.67434388
12.657282 2.8872774 0.67590368
12.676032 2.8496916 0.67642361
12.704422 2.8141768 0.67746347
12.732714 2.7785113 0.67850327
12.760907 2.7426901 0.6795432
12.779232 2.7046511 0.68006313
12.807217 2.6685734 0.68110293
12.825321 2.6303279 0.68162286
12.833972 2.5877857 0.68162286
12.842039 2.5474503 0.68162286
12.889185 2.5147452 0.68370259
12.926444 2.4798872 0.68526232
12.953799 2.4429634 0.68630219
12.990869 2.4077117 0.68786198
13.047907 2.3735583 0.69046164
13.07496 2.3360708 0.69150144
13.101907 2.2984369 0.6925413
13.128747 2.2606502 0.69358122
13.155478 2.2227175 0.69462103
13.191952 2.1862783 0.69618076
13.208612 2.1464281 0.69670075
13.235015 2.1080658 0.69774061
13.261307 2.0695522 0.69878042
13.287487 2.0308943 0.69982028
13.323431 1.9935765 0.70138007
13.34939 1.9546059 0.70241988
13.37557 1.9131514 0.70345974
13.401295 1.8738898 0.7044996
13.48768 1.7565333 0.70813912
13.512946 1.716665 0.70917892
13.538094 1.6766618 0.71021879
13.563124 1.6365111 0.71125865
13.588035 1.5962262 0.71229851
13.622747 1.5569347 0.71385825
13.637498 1.5152289 0.71437824
13.681906 1.476667 0.7164579
13.716524 1.4344003 0.7180177
13.740834 1.3933191 0.71905756
13.765019 1.3520993 0.72009736
13.799026 1.3116797 0.72165722
13.822967 1.2701526 0.72269702
13.856731 1.2293638 0.72425675
13.880424 1.1875374 0.72529668
13.913945 1.146381 0.72685641
13.937389 1.104237 0.72789627
13.970662 1.062721 0.72945607
14.003812 1.0210069 0.7310158
14.036839 0.97908831 0.73257565
14.069737 0.93697894 0.73413539
14.092545 0.89403349 0.73517525
14.125189 0.85156167 0.73673505
14.147593 0.81079298 0.73777485
14.189959 0.76849926 0.73985457
10.113472 6.2486439 0.21026868
12.873623 2.4674244 0.23184377
12.930439 2.4362209 0.232728
