# .PCD v0.7 - Point Cloud Data file format
VERSION 0.7
FIELDS x y z
SIZE 4 4 4
TYPE F F F
COUNT 1 1 1
WIDTH 1530
HEIGHT 1
VIEWPOINT 0 0 0 1 0 0 0
POINTS 1530
DATA ascii
1.2100613 6.0229344 -1.6460891
1.2270435 6.0096397 -1.6435009
1.2518051 6.0341282 -1.6512655
1.2687628 6.0207143 -1.6486773
1.2896943 6.0261436 -1.6512655
1.3055638 6.0029569 -1.6460891
1.3264976 6.0082583 -1.6486773
1.3474802 6.0134859 -1.6512655
1.3620811 5.9903855 -1.6460891
1.3808954 5.9860768 -1.6460891
1.3996931 5.981709 -1.6460891
1.4184772 5.9772825 -1.6460891
1.4362077 5.9730473 -1.6460891
1.4549643 5.9685063 -1.6460891
1.4737095 5.9639053 -1.6460891
1.4924371 5.9592466 -1.6460891
1.5111501 5.9545288 -1.6460891
1.5298511 5.9497514 -1.6460891
1.5495715 5.9446459 -1.6460891
1.5707071 5.9490876 -1.6486773
1.5908438 5.953733 -1.6512655
1.6044934 5.930058 -1.6460891
1.6256691 5.9343038 -1.6486773
1.6417217 5.9198594 -1.6460891
1.6629237 5.9239721 -1.6486773
1.6788852 5.9094272 -1.6460891
1.7001098 5.9134073 -1.6486773
1.7186806 5.9080367 -1.6486773
1.7372316 5.9026084 -1.6486773
1.7557683 5.8971214 -1.6486773
1.7742848 5.8915768 -1.6486773
1.7927839 5.8859739 -1.6486773
1.8102418 5.8806281 -1.6486773
1.8297315 5.8745933 -1.6486773
1.8481797 5.8688154 -1.6486773
1.8695371 5.8721843 -1.6512655
1.8790972 5.8386984 -1.6435009
1.8974324 5.8327656 -1.6435009
1.9187629 5.8359518 -1.6460891
1.9370865 5.8298955 -1.6460891
1.9492447 5.8054671 -1.6409127
1.9674723 5.799315 -1.6409127
1.9950794 5.8205171 -1.6486773
2.0133569 5.81422 -1.6486773
2.0316091 5.8078675 -1.6486773
2.0498466 5.801456 -1.6486773
2.0648146 5.7858906 -1.6460891
2.0829828 5.7793746 -1.6460891
2.1044316 5.7818794 -1.6486773
2.1225843 5.7752399 -1.6486773
2.1373584 5.7594867 -1.6460891
2.1588297 5.7617893 -1.6486773
2.1700871 5.7369089 -1.6435009
2.1915441 5.7390871 -1.6460891
2.2130361 5.7411876 -1.6486773
2.2345657 5.7432075 -1.6512655
2.2525964 5.7361598 -1.6512655
2.2634897 5.7110944 -1.6460891
2.2885935 5.7218928 -1.6512655
2.2957113 5.6878037 -1.6435009
2.3135703 5.680563 -1.6435009
2.3314037 5.6732674 -1.6435009
2.3492169 5.6659141 -1.6435009
2.3679917 5.658093 -1.6435009
2.3895113 5.6595249 -1.6460891
2.4006944 5.6337972 -1.6409127
2.4135883 5.617774 -1.6383246
2.4350648 5.6190267 -1.6409127
2.4555922 5.6206288 -1.6435009
2.4654469 5.5952091 -1.6383246
2.4908595 5.6050892 -1.6435009
2.512408 5.6060495 -1.6460891
2.5300064 5.5981297 -1.6460891
2.5555911 5.6077332 -1.6512655
2.561095 5.5733471 -1.6435009
2.5795643 5.5648227 -1.6435009
2.5970356 5.5566907 -1.6435009
2.614476 5.5485058 -1.6435009
2.6360404 5.5489888 -1.6460891
2.6534588 5.5406804 -1.6460891
2.6698885 5.5327826 -1.6460891
2.6830335 5.5156808 -1.6435009
2.7003446 5.5072265 -1.6435009
2.7143126 5.4895821 -1.6409127
2.7358525 5.4896736 -1.6435009
2.7530868 5.4810505 -1.6435009
2.7659287 5.463757 -1.6409127
2.7918584 5.4722495 -1.6460891
2.803669 5.4553499 -1.6435009
2.8252347 5.4550924 -1.6460891
2.8378909 5.4376264 -1.6435009
2.8549588 5.4286842 -1.6435009
2.8765211 5.4282236 -1.6460891
2.8890121 5.4106388 -1.6435009
2.9059973 5.401535 -1.6435009
2.9275544 5.4008713 -1.6460891
2.9445062 5.3916483 -1.6460891
2.9614289 5.3823714 -1.6460891
2.9689593 5.3561444 -1.6409127
2.9904826 5.3552232 -1.6435009
3.0025547 5.3373837 -1.6409127
3.0145445 5.3195219 -1.6383246
3.0360289 5.3184142 -1.6409127
3.0536501 5.3083162 -1.6409127
3.0654705 5.2903385 -1.6383246
3.0869434 5.2890248 -1.6409127
3.103543 5.2793012 -1.6409127
3.1299548 5.286149 -1.6460891
3.140681 5.2685413 -1.6435009
3.1572187 5.2586474 -1.6435009
3.1737225 5.2487035 -1.6435009
3.195219 5.2469573 -1.6460891
3.2167358 5.2451282 -1.6486773
3.2281237 5.2267776 -1.6460891
3.24544 5.216043 -1.6460891
3.2669384 5.2140074 -1.6486773
3.2875462 5.2124619 -1.6512655
3.3039069 5.202107 -1.6512655
3.3150284 5.1835651 -1.6486773
3.3417575 5.1893663 -1.6538537
3.3527851 5.1707397 -1.6512655
3.363734 5.1520925 -1.6486773
3.3799045 5.1414986 -1.6486773
3.4013705 5.1389098 -1.6512655
3.4121432 5.1201601 -1.6486773
3.4282084 5.1094179 -1.6486773
3.4496515 5.1066256 -1.6512655
3.466568 5.0951567 -1.6512655
3.4716399 5.0683036 -1.6460891
3.4930279 5.0653253 -1.6486773
3.5144312 5.0622616 -1.6512655
3.5358524 5.0591121 -1.6538537
3.5461717 5.0400777 -1.6512655
3.5564041 5.0210309 -1.6486773
3.5721598 5.0098338 -1.6486773
3.5935123 5.0064344 -1.6512655
3.6083522 4.9957495 -1.6512655
3.6183503 4.9765754 -1.6486773
3.6405385 4.9723434 -1.6512655
3.6561406 4.9608822 -1.6512655
3.6650891 4.942255 -1.6486773
3.686377 4.9384556 -1.6512655
3.6960726 4.919127 -1.6486773
3.7173338 4.9151955 -1.6512655
3.7386069 4.9111795 -1.6538537
3.742269 4.8840747 -1.6486773
3.7634921 4.8799429 -1.6512655
3.7855797 4.8750644 -1.6538537
3.7949271 4.8555374 -1.6512655
3.8041897 4.8360004 -1.6486773
3.819365 4.8240247 -1.6486773
3.8465395 4.8271108 -1.6538537
3.8556433 4.8074665 -1.6512655
3.8707266 4.7953305 -1.6512655
3.8857715 4.7831473 -1.6512655
3.8946664 4.7634373 -1.6486773
3.9157484 4.7586374 -1.6512655
3.9245193 4.7388721 -1.6486773
3.9455686 4.733942 -1.6512655
3.9666302 4.7289228 -1.6538537
3.9744155 4.7097492 -1.6512655
3.9954438 4.7046037 -1.6538537
4.011024 4.6913271 -1.6538537
4.0194416 4.671382 -1.6512655
4.0340962 4.6587319 -1.6512655
4.0487137 4.6460342 -1.6512655
4.0696578 4.6405554 -1.6538537
4.0778236 4.6205058 -1.6512655
4.1051493 4.6221147 -1.6564418
4.1132121 4.6019945 -1.6538537
4.1276507 4.5890484 -1.6538537
4.1485281 4.5832205 -1.6564418
4.1564012 4.563025 -1.6538537
4.1576633 4.5357027 -1.6486773
4.1849895 4.536819 -1.6538537
4.1926513 4.5165687 -1.6512655
4.2068191 4.5033755 -1.6512655
4.2209454 4.4901381 -1.6512655
4.2416697 4.4838715 -1.6538537
4.2557344 4.4705243 -1.6538537
4.2563953 4.443181 -1.6486773
4.2770362 4.4367423 -1.6512655
4.2909527 4.4232845 -1.6512655
4.3048286 4.409781 -1.6512655
4.3254294 4.4031267 -1.6538537
4.3392425 4.3895149 -1.6538537
4.3537736 4.3751025 -1.6538537
4.360661 4.3545785 -1.6512655
4.3804188 4.3484249 -1.6538537
4.3871808 4.3278589 -1.6512655
4.4076543 4.3208156 -1.6538537
4.4142871 4.3002081 -1.6512655
4.4347143 4.2930384 -1.6538537
4.4481807 4.2790837 -1.6538537
4.4546185 4.2584143 -1.6512655
4.4679761 4.2443972 -1.6512655
4.4883113 4.2369714 -1.6538537
4.494554 4.2162423 -1.6512655
4.5007138 4.1955142 -1.6486773
4.5138712 4.181355 -1.6486773
4.5340929 4.1736937 -1.6512655
4.5400548 4.1529107 -1.6486773
4.5602255 4.1451249 -1.6512655
4.5732265 4.1307769 -1.6512655
4.5861807 4.1163898 -1.6512655
4.584672 4.0891037 -1.6460891
4.5974965 4.0746794 -1.6460891
4.6175232 4.0666008 -1.6486773
4.6302772 4.052073 -1.6486773
4.6429834 4.0375075 -1.6486773
4.6629524 4.0292172 -1.6512655
4.6682606 4.0082545 -1.6486773
4.6734805 3.9873006 -1.6460891
4.7007208 3.9850898 -1.6512655
4.7132163 3.9703033 -1.6512655
4.7330728 3.9616776 -1.6538537
4.73807 3.9406106 -1.6512655
4.7436638 3.9187262 -1.6486773
4.7559524 3.9038029 -1.6486773
4.7756777 3.894948 -1.6512655
4.7878895 3.8799264 -1.6512655
4.80758 3.8709223 -1.6538537
4.8197165 3.8558009 -1.6538537
4.8318071 3.8406389 -1.6538537
4.8438482 3.8254411 -1.6538537
4.8482423 3.8042428 -1.6512655
4.8677888 3.7949307 -1.6538537
4.8796864 3.7796202 -1.6538537
4.8915372 3.7642703 -1.6538537
4.8956647 3.7430184 -1.6512655
4.9067478 3.7284772 -1.6512655
4.9267964 3.7180026 -1.6538537
4.9307232 3.6967127 -1.6512655
4.9507036 3.6861088 -1.6538537
4.9616179 3.6714046 -1.6538537
4.9809093 3.661521 -1.6564418
4.9767876 3.6344602 -1.6512655
4.9960008 3.6244781 -1.6538537
5.0151982 3.6144133 -1.6564418
5.0186739 3.5930178 -1.6538537
5.0299363 3.5772345 -1.6538537
5.0411506 3.5614135 -1.6538537
5.0523152 3.5455573 -1.6538537
5.0713506 3.5351944 -1.6564418
5.0824327 3.5192435 -1.6564418
5.0855045 3.4977863 -1.6538537
5.0964689 3.481791 -1.6538537
5.1233687 3.4766088 -1.6590301
5.1102338 3.4443038 -1.6512655
5.1290569 3.4336045 -1.6538537
5.1398182 3.4174752 -1.6538537
5.1666508 3.4119554 -1.6590301
5.1692662 3.3904104 -1.6564418
5.1798911 3.3741548 -1.6564418
5.1904669 3.3578637 -1.6564418
5.2091165 3.3467631 -1.6590301
5.211463 3.3251843 -1.6564418
5.230042 3.313967 -1.6590301
5.2410021 3.2966063 -1.6590301
5.2513337 3.2801235 -1.6590301
5.261044 3.2645264 -1.6590301
5.2630496 3.2429161 -1.6564418
5.273211 3.2263668 -1.6564418
5.28332 3.2097857 -1.6564418
5.2933788 3.1931703 -1.6564418
5.3116722 3.1814868 -1.6590301
5.3382444 3.1746595 -1.6642065
5.3232379 3.1431408 -1.6564418
5.3330855 3.1264029 -1.6564418
5.3595791 3.1193492 -1.6616184
5.3693528 3.1024947 -1.6616184
5.3790727 3.0856123 -1.6616184
5.3887391 3.0686991 -1.6616184
5.3983526 3.0517559 -1.6616184
5.3994904 3.0300527 -1.6590301
5.4089842 3.0130732 -1.6590301
5.4268756 3.0007408 -1.6616184
5.4278078 2.9790304 -1.6590301
5.4456215 2.9665856 -1.6616184
5.4634118 2.9540555 -1.6642065
5.4726663 2.9368756 -1.6642065
5.4648142 2.910588 -1.6590301
5.4739308 2.8934064 -1.6590301
5.4915485 2.880681 -1.6616184
5.5091381 2.8678756 -1.6642065
5.5095401 2.8461194 -1.6616184
5.5270476 2.8332064 -1.6642065
5.5278034 2.8104835 -1.6616184
5.553854 2.8018031 -1.6667947
5.5453529 2.7756953 -1.6616184
5.5449147 2.75493 -1.6590301
5.5626826 2.7408004 -1.6616184
5.5886226 2.7317934 -1.6667947
5.5884862 2.7100065 -1.6642065
5.6143808 2.7008121 -1.6693828
5.61412 2.6790018 -1.6667947
5.6137776 2.6572199 -1.6642065
5.6133552 2.635464 -1.6616184
5.6303639 2.621892 -1.6642065
5.6473417 2.608242 -1.6667947
5.6555076 2.5904887 -1.6667947
5.6548228 2.5687146 -1.6642065
5.6628652 2.5509353 -1.6642065
5.6708522 2.5331306 -1.6642065
5.6876135 2.5192156 -1.6667947
5.6866555 2.497452 -1.6642065
5.7126203 2.4862885 -1.6693828
5.7115335 2.4645038 -1.6667947
5.7277017 2.4513452 -1.6693828
5.735374 2.4333401 -1.6693828
5.734086 2.4115665 -1.6667947
5.7505498 2.3972554 -1.6693828
5.7669797 2.3828676 -1.6719711
5.7565603 2.3574154 -1.6667947
5.7728877 2.3429525 -1.6693828
5.7802191 2.324806 -1.6693828
5.7874951 2.3066339 -1.6693828
5.7947125 2.2884417 -1.6693828
5.8108692 2.2737439 -1.6719711
5.8179832 2.2554784 -1.6719711
5.8160229 2.2337275 -1.6693828
5.8320403 2.218878 -1.6719711
5.8389816 2.2005465 -1.6719711
5.8458667 2.1821902 -1.6719711
5.8526921 2.1638181 -1.6719711
5.8685317 2.1487401 -1.6745592
5.8661733 2.1269987 -1.6719711
5.8731942 2.1075351 -1.6719711
5.8797865 2.089072 -1.6719711
5.8957939 2.0727673 -1.6745592
5.8927956 2.0520895 -1.6719711
5.8992143 2.0335648 -1.6719711
5.886939 2.0098121 -1.6667947
5.9023743 1.9944009 -1.6693828
5.9177723 1.97891 -1.6719711
5.9334722 1.962309 -1.6745592
5.930428 1.9406531 -1.6719711
5.9364953 1.9220136 -1.6719711
5.9421716 1.9043924 -1.6719711
5.9576626 1.8875927 -1.6745592
5.9543457 1.8659796 -1.6719711
5.9601789 1.8472625 -1.6719711
5.9751878 1.8313606 -1.6745592
5.9809113 1.8125812 -1.6745592
5.9865766 1.7937809 -1.6745592
6.0014439 1.7777092 -1.6771475
5.9977293 1.7561303 -1.6745592
6.012495 1.7399657 -1.6771475
6.0086441 1.7184134 -1.6745592
6.0140133 1.6995265 -1.6745592
6.0286264 1.6832234 -1.6771475
6.033885 1.6642739 -1.6771475
6.0297637 1.6427717 -1.6745592
6.0348945 1.6238217 -1.6745592
6.0399666 1.6048528 -1.6745592
6.0543218 1.588322 -1.6771475
6.049931 1.5668706 -1.6745592
6.0548234 1.5478575 -1.6745592
6.0690217 1.5311923 -1.6771475
6.0738029 1.5121167 -1.6771475
6.0785232 1.493029 -1.6771475
6.0925713 1.4761982 -1.6797355
6.0971785 1.4570516 -1.6797355
6.1111274 1.4401064 -1.6823238
6.0968046 1.4165269 -1.6771475
6.1106396 1.3995239 -1.6797355
6.1244292 1.382445 -1.6823238
6.1381702 1.365296 -1.684912
6.1329937 1.3439393 -1.6823238
6.1277442 1.3226256 -1.6797355
6.1602135 1.3093942 -1.6875002
6.1642962 1.2900361 -1.6875002
6.1588583 1.2687134 -1.684912
6.1628132 1.2493597 -1.684912
6.1761813 1.2318802 -1.6875002
6.1802325 1.2113907 -1.6875002
6.1745219 1.1901449 -1.684912
6.1879263 1.1714579 -1.6875002
6.1818781 1.1513253 -1.684912
6.2044678 1.1353744 -1.6900884
6.1984973 1.1141694 -1.6875002
6.2019668 1.0946919 -1.6875002
6.2051878 1.0762836 -1.6875002
6.2085381 1.0567853 -1.6875002
6.221355 1.0388645 -1.6900884
6.2247658 1.0182294 -1.6900884
6.2470083 1.0017285 -1.6952647
6.2310405 0.97909749 -1.6900884
6.2436328 0.96098793 -1.6926765
6.2370696 0.93992704 -1.6900884
6.2686591 0.92455751 -1.697853
6.2524123 0.90210187 -1.6926765
6.2552156 0.88245308 -1.6926765
6.257957 0.86279863 -1.6926765
6.2702093 0.8444218 -1.6952647
6.272831 0.82472044 -1.6952647
6.2753911 0.80501091 -1.6952647
6.2778893 0.78529042 -1.6952647
6.2899141 0.76673102 -1.697853
6.2826996 0.7458294 -1.6952647
6.2946072 0.72719783 -1.697853
6.2968602 0.70742041 -1.697853
6.2990518 0.68763298 -1.697853
6.3396029 0.67191088 -1.7082057
6.3416824 0.65199238 -1.7082057
6.3436995 0.63206744 -1.7082057
6.355268 0.61306369 -1.7107939
6.3572664 0.59198368 -1.7107939
6.3494749 0.57114172 -1.7082057
6.3416138 0.5503605 -1.7056174
6.3335938 0.5307337 -1.7030294
6.354486 0.51238745 -1.7082057
6.3560643 0.49241993 -1.7082057
6.338397 0.4699097 -1.7030294
6.3591118 0.45136675 -1.7082057
6.3508611 0.43073136 -1.7056174
6.3618221 0.41139898 -1.7082057
6.3534422 0.39081886 -1.7056174
6.3642817 0.37142101 -1.7082057
6.355772 0.35089397 -1.7056174
6.356843 0.3309232 -1.7056174
6.3674994 0.31142101 -1.7082057
6.3780951 0.29185817 -1.7107939
6.3693304 0.27140936 -1.7082057
6.3798032 0.25178033 -1.7107939
6.3612566 0.23103337 -1.7056174
6.3716054 0.21136622 -1.7082057
6.3722382 0.19134943 -1.7082057
6.3631516 0.17107114 -1.7056174
6.3733144 0.15131037 -1.7082057
6.3930726 0.1316833 -1.7133821
6.3837972 0.11142784 -1.7107939
6.3841157 0.091373242 -1.7107939
6.3553953 0.070994072 -1.7030294
6.3845634 0.051261544 -1.7107939
6.365375 0.031107385 -1.7056174
6.3751006 0.011124875 -1.7082057
6.375104 -0.0089013297 -1.7082057
6.3847036 -0.028973063 -1.7107939
6.3942404 -0.049105208 -1.7133821
6.3843956 -0.069088504 -1.7107939
6.3648305 -0.088875569 -1.7056174
6.3838353 -0.10920121 -1.7107939
6.3738036 -0.12906051 -1.7082057
6.3733668 -0.14908373 -1.7082057
6.392179 -0.16961794 -1.7133821
6.401269 -0.18998525 -1.7159703
6.4102583 -0.21153013 -1.7185584
6.4095621 -0.23166749 -1.7185584
6.4184098 -0.25330198 -1.7211466
6.4272809 -0.27275419 -1.7237349
6.4167428 -0.29250485 -1.7211466
6.4158468 -0.31154239 -1.7211466
6.4051323 -0.33231592 -1.7185584
6.423346 -0.35349813 -1.7237349
6.4029179 -0.37255374 -1.7185584
6.3824339 -0.3914845 -1.7133821
6.3618937 -0.41029027 -1.7082057
6.379848 -0.43157852 -1.7133821
6.3784609 -0.45161927 -1.7133821
6.3770103 -0.47165546 -1.7133821
6.3658662 -0.49094436 -1.7107939
6.3546643 -0.5101679 -1.7082057
6.372282 -0.5317356 -1.7133821
6.3609567 -0.55091852 -1.7107939
6.3591943 -0.57089937 -1.7107939
6.376605 -0.59266227 -1.7159703
6.3554821 -0.61084384 -1.7107939
6.3631439 -0.63176143 -1.7133821
6.3515186 -0.65076411 -1.7107939
6.3494425 -0.6707148 -1.7107939
6.3473043 -0.69065881 -1.7107939
6.3547025 -0.71167105 -1.7133821
6.3332438 -0.72942102 -1.7082057
6.3403821 -0.7515558 -1.7107939
6.3284016 -0.77030385 -1.7082057
6.326088 -0.78907722 -1.7082057
6.3330173 -0.81127828 -1.7107939
6.3304372 -0.83117002 -1.7107939
6.337368 -0.852341 -1.7133821
6.325242 -0.86982465 -1.7107939
6.3224778 -0.88969165 -1.7107939
6.3100915 -0.90817386 -1.7082057
6.3261571 -0.93190932 -1.7133821
6.3040953 -0.94890338 -1.7082057
6.3010831 -0.96870369 -1.7082057
6.2980084 -0.98849428 -1.7082057
6.2948718 -1.0082752 -1.7082057
6.2916732 -1.028046 -1.7082057
6.2884126 -1.0478069 -1.7082057
6.2660441 -1.0643222 -1.7030294
6.2912226 -1.0889444 -1.7107939
6.2782583 -1.1070262 -1.7082057
6.2747493 -1.1267445 -1.7082057
6.2713785 -1.1453571 -1.7082057
6.2770419 -1.1679143 -1.7107939
6.2543607 -1.1840349 -1.7056174
6.2598848 -1.2065969 -1.7082057
6.256063 -1.226257 -1.7082057
6.2616525 -1.2477925 -1.7107939
6.2579226 -1.2663656 -1.7107939
6.2539134 -1.2860193 -1.7107939
6.2403874 -1.3036849 -1.7082057
6.2457099 -1.3252881 -1.7107939
6.2415156 -1.344903 -1.7107939
6.2278237 -1.3624405 -1.7082057
6.2329421 -1.3840929 -1.7107939
6.2379861 -1.4057908 -1.7133821
6.2241225 -1.423228 -1.7107939
6.2196207 -1.4427747 -1.7107939
6.2150574 -1.462307 -1.7107939
6.210433 -1.4818248 -1.7107939
6.1963587 -1.4990569 -1.7082057
6.210381 -1.5231175 -1.7133821
6.1961913 -1.54029 -1.7107939
6.1913218 -1.5597483 -1.7107939
6.1863909 -1.5791913 -1.7107939
6.1811204 -1.5996974 -1.7107939
6.176064 -1.6191081 -1.7107939
6.1709471 -1.6385027 -1.7107939
6.1753869 -1.6593115 -1.7133821
6.1701436 -1.678704 -1.7133821
6.155231 -1.6965889 -1.7107939
6.1591744 -1.7185137 -1.7133821
6.144752 -1.7341572 -1.7107939
6.1482553 -1.7571787 -1.7133821
6.1427045 -1.7764854 -1.7133821
6.1278224 -1.7930617 -1.7107939
6.1221595 -1.8123039 -1.7107939
6.1164355 -1.8315284 -1.7107939
6.1106515 -1.8507346 -1.7107939
6.1048069 -1.8699225 -1.7107939
6.0804486 -1.8833764 -1.7056174
6.0929375 -1.9082431 -1.7107939
6.0869126 -1.9273753 -1.7107939
6.0900273 -1.9494331 -1.7133821
6.0654926 -1.9626085 -1.7082057
6.0684776 -1.9846566 -1.7107939
6.0622125 -2.0037115 -1.7107939
6.0650496 -2.0258067 -1.7133821
6.0495033 -2.0417616 -1.7107939
6.033917 -2.0576389 -1.7082057
6.0274229 -2.0765848 -1.7082057
6.0299916 -2.0986853 -1.7107939
6.0233688 -2.1176186 -1.7107939
6.0166864 -2.1365314 -1.7107939
6.0095682 -2.1564715 -1.7107939
6.0027637 -2.1753404 -1.7107939
5.9962831 -2.1931415 -1.7107939
5.9980383 -2.2163618 -1.7133821
5.9910455 -2.2351942 -1.7133821
5.9749546 -2.2505996 -1.7107939
5.9678545 -2.2693594 -1.7107939
5.9606957 -2.2880967 -1.7107939
5.9628882 -2.3092608 -1.7133821
5.9556041 -2.3279822 -1.7133821
5.9482608 -2.3466809 -1.7133821
5.9314728 -2.3628185 -1.7107939
5.9329829 -2.3850439 -1.7133821
5.9165096 -2.4000401 -1.7107939
5.9178801 -2.4222746 -1.7133821
5.9102411 -2.4408543 -1.7133821
5.8847117 -2.4519792 -1.7082057
5.8858838 -2.4741976 -1.7107939
5.8869743 -2.4964478 -1.7133821
5.8702216 -2.5111306 -1.7107939
5.8623037 -2.5295601 -1.7107939
5.8631849 -2.5518193 -1.7133821
5.8551393 -2.5702262 -1.7133821
5.8470359 -2.588608 -1.7133821
5.8300543 -2.6030262 -1.7107939
5.8394632 -2.6292605 -1.7159703
5.8311744 -2.6475928 -1.7159703
5.8140454 -2.6618779 -1.7133821
5.814424 -2.6841786 -1.7159703
5.805963 -2.7024317 -1.7159703
5.7974443 -2.7206583 -1.7159703
5.7801375 -2.7347271 -1.7133821
5.7802353 -2.7570307 -1.7159703
5.7715454 -2.7751765 -1.7159703
5.7627983 -2.7932947 -1.7159703
5.7539945 -2.8113852 -1.7159703
5.7537994 -2.8337157 -1.7185584
5.736217 -2.8474827 -1.7159703
5.7358813 -2.8698115 -1.7185584
5.7268376 -2.8878171 -1.7185584
5.7177367 -2.9057944 -1.7185584
5.7085795 -2.9237428 -1.7185584
5.6993666 -2.9416625 -1.7185584
5.6724429 -2.9516287 -1.7133821
5.6802511 -2.9784057 -1.7185584
5.6623259 -2.9917235 -1.7159703
5.6614256 -3.0140367 -1.7185584
5.6434164 -3.0272415 -1.7159703
5.6423759 -3.0495486 -1.7185584
5.6327677 -3.0672598 -1.7185584
5.614635 -3.0802944 -1.7159703
5.6133847 -3.1025908 -1.7185584
5.6036096 -3.1202104 -1.7185584
5.5937796 -3.137799 -1.7185584
5.5754848 -3.1506047 -1.7159703
5.5739541 -3.1728835 -1.7185584
5.5723376 -3.195184 -1.7211466
5.5539083 -3.2078431 -1.7185584
5.5438032 -3.2252753 -1.7185584
5.5419769 -3.2475593 -1.7211466
5.5317469 -3.2649539 -1.7211466
5.5131602 -3.2773802 -1.7185584
5.5028367 -3.2946844 -1.7185584
5.4924588 -3.3119557 -1.7185584
5.490283 -3.334208 -1.7211466
5.4797812 -3.3514397 -1.7211466
5.4774494 -3.3737044 -1.7237349
5.450407 -3.3807127 -1.7185584
5.4479513 -3.402936 -1.7211466
5.4454107 -3.4251773 -1.7237349
5.4264631 -3.437099 -1.7211466
5.4156384 -3.4541297 -1.7211466
5.4041538 -3.4720697 -1.7211466
5.40133 -3.494277 -1.7237349
5.3822317 -3.5059562 -1.7211466
5.3792682 -3.5281456 -1.7237349
5.3600969 -3.5397046 -1.7211466
5.3489504 -3.5565259 -1.7211466
5.3377509 -3.5733128 -1.7211466
5.3345089 -3.5954628 -1.7237349
5.3231869 -3.6122038 -1.7237349
5.3038368 -3.6234603 -1.7211466
5.300386 -3.6455791 -1.7237349
5.2889066 -3.6622128 -1.7237349
5.2852998 -3.684334 -1.7263231
5.2657924 -3.6953714 -1.7237349
5.2541571 -3.7118959 -1.7237349
5.2418189 -3.7292988 -1.7237349
5.2379303 -3.7513728 -1.7263231
5.233954 -3.7734582 -1.7289113
5.2149167 -3.7832992 -1.7263231
5.2030053 -3.7996638 -1.7263231
5.18326 -3.8102691 -1.7237349
5.17836 -3.8331838 -1.7263231
5.1662922 -3.8494332 -1.7263231
5.1534986 -3.8665442 -1.7263231
5.1420035 -3.8818176 -1.7263231
5.1374741 -3.9037962 -1.7289113
5.1175122 -3.9140491 -1.7263231
5.1051903 -3.9301069 -1.7263231
5.0928187 -3.9461257 -1.7263231
5.0956302 -3.9739861 -1.7314994
5.067924 -3.9780467 -1.7263231
5.0629807 -3.9999361 -1.7289113
5.042829 -4.0098109 -1.7263231
5.0377483 -4.0316687 -1.7289113
5.0175357 -4.0414162 -1.7263231
5.0048141 -4.0571594 -1.7263231
4.9995279 -4.078969 -1.7289113
4.994154 -4.1007848 -1.7314994
4.9812465 -4.1164541 -1.7314994
4.9534369 -4.11973 -1.7263231
4.9478765 -4.1414709 -1.7289113
4.9348416 -4.1569943 -1.7289113
4.9217572 -4.1724772 -1.7289113
4.9152412 -4.1950464 -1.7314994
4.8947105 -4.2041736 -1.7289113
4.8887863 -4.2258468 -1.7314994
4.8609109 -4.2285051 -1.7263231
4.8621383 -4.2564802 -1.7314994
4.848742 -4.2717342 -1.7314994
4.8425255 -4.2933536 -1.7340876
4.8290138 -4.3085456 -1.7340876
4.8010798 -4.3107886 -1.7289113
4.801847 -4.3388019 -1.7340876
4.7881927 -4.3538656 -1.7340876
4.7744913 -4.3688865 -1.7340876
4.7536368 -4.3773217 -1.7314994
4.7469463 -4.3987994 -1.7340876
4.7331038 -4.4136906 -1.7340876
4.7192144 -4.4285383 -1.7340876
4.7052784 -4.4433427 -1.7340876
4.6912961 -4.4581027 -1.7340876
4.6772676 -4.4728184 -1.7340876
4.6631927 -4.4874907 -1.7340876
4.6421332 -4.4953985 -1.7314994
4.6418228 -4.5234432 -1.7366759
4.6206927 -4.5312405 -1.7340876
4.6064343 -4.5457339 -1.7340876
4.5921311 -4.560183 -1.7340876
4.5854144 -4.580615 -1.7366759
4.5701995 -4.5957956 -1.7366759
4.5489488 -4.60326 -1.7340876
4.533659 -4.6183195 -1.7340876
4.5199366 -4.6317506 -1.7340876
4.505363 -4.6459274 -1.7340876
4.4907451 -4.6600585 -1.7340876
4.4760828 -4.6741438 -1.7340876
4.4613767 -4.6881824 -1.7340876
4.4399896 -4.6951575 -1.7314994
4.4318318 -4.7161217 -1.7340876
4.4104018 -4.7229614 -1.7314994
4.4086828 -4.7509551 -1.7366759
4.3806396 -4.7505794 -1.7314994
4.3656936 -4.7643185 -1.7314994
4.3442011 -4.7708678 -1.7289113
4.3421531 -4.7988172 -1.7340876
4.3205976 -4.8052521 -1.7314994
4.30548 -4.8188019 -1.7314994
4.2839069 -4.8250809 -1.7289113
4.2687278 -4.8385148 -1.7289113
4.2598734 -4.8591652 -1.7314994
4.2509317 -4.879807 -1.7340876
4.2292585 -4.8858352 -1.7314994
4.2138886 -4.899097 -1.7314994
4.1976194 -4.913044 -1.7314994
4.1884151 -4.9335704 -1.7340876
4.1533508 -4.9252801 -1.7263231
4.1511292 -4.9523873 -1.7314994
4.1355505 -4.9654036 -1.7314994
4.1207995 -4.9776521 -1.7314994
4.0928688 -4.9756541 -1.7263231
4.0894427 -5.0034456 -1.7314994
4.0737038 -5.0162683 -1.7314994
4.0518589 -5.021524 -1.7289113
4.0412254 -5.0424705 -1.7314994
4.0253644 -5.055141 -1.7314994
4.0034699 -5.0601869 -1.7289113
4.0054617 -5.095521 -1.7366759
3.9775424 -5.0928545 -1.7314994
3.9674449 -5.112956 -1.7340876
3.9454648 -5.1177454 -1.7314994
3.935241 -5.1377831 -1.7340876
3.9073825 -5.134747 -1.7289113
3.9028816 -5.1624074 -1.7340876
3.8866446 -5.174643 -1.7340876
3.8703687 -5.1868281 -1.7340876
3.8540547 -5.1989613 -1.7340876
3.8491583 -5.2265992 -1.739264
3.8270166 -5.2308702 -1.7366759
3.8105645 -5.242867 -1.7366759
3.7940745 -5.2548127 -1.7366759
3.7831771 -5.2745547 -1.739264
3.7553778 -5.2706809 -1.7340876
3.7499616 -5.2982211 -1.739264
3.722187 -5.2941723 -1.7340876
3.716598 -5.3216782 -1.739264
3.6934259 -5.3260365 -1.7366759
3.6876345 -5.3535228 -1.7418523
3.6598892 -5.3491373 -1.7366759
3.6484952 -5.3685975 -1.739264
3.6316113 -5.380033 -1.739264
3.6146915 -5.3914156 -1.739264
3.5977361 -5.4027448 -1.739264
3.5870197 -5.421452 -1.7418523
3.5584159 -5.4171705 -1.7366759
3.5413795 -5.4283228 -1.7366759
3.5085516 -5.415102 -1.7289113
3.4967494 -5.4342208 -1.7314994
3.4848611 -5.4533186 -1.7340876
3.4625366 -5.4560838 -1.7314994
3.4453785 -5.4669352 -1.7314994
3.4291422 -5.4771338 -1.7314994
3.4211576 -5.5048833 -1.7366759
3.3937013 -5.4991636 -1.7314994
3.3754466 -5.5103874 -1.7314994
3.3540614 -5.5121264 -1.7289113
3.3517137 -5.5474381 -1.7366759
3.3243303 -5.5413752 -1.7314994
3.310878 -5.5606675 -1.7340876
3.2835612 -5.5544119 -1.7289113
3.2758744 -5.5813603 -1.7340876
3.2593002 -5.5910554 -1.7340876
3.241719 -5.6012673 -1.7340876
3.2192938 -5.6030488 -1.7314994
3.2102642 -5.630476 -1.7366759
3.1830442 -5.6237211 -1.7314994
3.1700921 -5.6421142 -1.7340876
3.1429417 -5.6351733 -1.7289113
3.1252227 -5.6450195 -1.7289113
3.1028214 -5.6463447 -1.7263231
3.0850673 -5.656065 -1.7263231
3.0728717 -5.673687 -1.7289113
3.0504591 -5.6748047 -1.7263231
3.0371625 -5.6928821 -1.7289113
3.0137496 -5.6943851 -1.7263231
3.0003366 -5.7123766 -1.7289113
2.9868402 -5.73034 -1.7314994
2.9643857 -5.7311153 -1.7289113
2.9419556 -5.7318068 -1.7263231
2.9327018 -5.758235 -1.7314994
2.9102402 -5.7587991 -1.7289113
2.9007936 -5.7851825 -1.7340876
2.8696973 -5.7683229 -1.7263231
2.8558362 -5.7859712 -1.7289113
2.8333976 -5.7862396 -1.7263231
2.8278673 -5.821177 -1.7340876
2.7969861 -5.8039279 -1.7263231
2.7787383 -5.8126864 -1.7263231
2.7687411 -5.8388424 -1.7314994
2.7503841 -5.8475122 -1.7314994
2.727916 -5.8473701 -1.7289113
2.7095323 -5.8559113 -1.7289113
2.6911223 -5.8643947 -1.7289113
2.676687 -5.8816118 -1.7314994
2.6502492 -5.8723836 -1.7263231
2.6357329 -5.8894973 -1.7289113
2.6211352 -5.9065776 -1.7314994
2.6025667 -5.914783 -1.7314994
2.5752163 -5.9056726 -1.7263231
2.5604837 -5.9225998 -1.7289113
2.5380595 -5.9217367 -1.7263231
2.526998 -5.9474607 -1.7314994
2.5008023 -5.9375668 -1.7263231
2.4933002 -5.9721346 -1.7340876
2.4708331 -5.9710126 -1.7314994
2.4483967 -5.9698086 -1.7289113
2.4296305 -5.9774709 -1.7289113
2.4144485 -5.9940343 -1.7314994
2.3920245 -5.992619 -1.7289113
2.3767397 -6.0090866 -1.7314994
2.3578496 -6.0165234 -1.7314994
2.3389368 -6.023901 -1.7314994
2.3234682 -6.0402346 -1.7340876
2.2976022 -6.0294518 -1.7289113
2.2820597 -6.0456772 -1.7314994
2.2630551 -6.0528169 -1.7314994
2.2373204 -6.04178 -1.7263231
2.2216539 -6.0578475 -1.7289113
2.2026122 -6.0647969 -1.7289113
2.183548 -6.0716867 -1.7289113
2.1612227 -6.0694175 -1.7263231
2.1389325 -6.0670671 -1.7237349
2.1262274 -6.0919967 -1.7289113
2.1070788 -6.0986462 -1.7289113
2.0879087 -6.1052356 -1.7289113
2.0656219 -6.1026154 -1.7263231
2.0464394 -6.1090746 -1.7263231
2.0231316 -6.106658 -1.7237349
2.0069458 -6.1221628 -1.7263231
1.9857908 -6.1189027 -1.7237349
1.9695106 -6.1343083 -1.7263231
1.9502298 -6.1404653 -1.7263231
1.9338247 -6.1557765 -1.7289113
1.9087439 -6.143373 -1.7237349
1.8951082 -6.1678057 -1.7289113
1.872914 -6.1644874 -1.7263231
1.8563178 -6.1795912 -1.7289113
1.8341447 -6.1761332 -1.7263231
1.817454 -6.1911325 -1.7289113
1.7979954 -6.1968117 -1.7289113
1.7758553 -6.1931453 -1.7263231
1.7563907 -6.1986938 -1.7263231
1.7316997 -6.1855774 -1.7211466
1.7199836 -6.2189164 -1.7289113
1.7004375 -6.2242894 -1.7289113
1.6833918 -6.2389264 -1.7314994
1.6602079 -6.2351403 -1.7289113
1.6430672 -6.2496672 -1.7314994
1.620999 -6.2454486 -1.7289113
1.6037673 -6.2598677 -1.7314994
1.5840939 -6.2648749 -1.7314994
1.5654984 -6.2695475 -1.7314994
1.5434841 -6.2650557 -1.7289113
1.5237939 -6.2698736 -1.7289113
1.5018371 -6.2652369 -1.7263231
1.4865916 -6.2887244 -1.7314994
1.4635381 -6.2842121 -1.7289113
1.4459503 -6.2981935 -1.7314994
1.4261565 -6.3027048 -1.7314994
1.4042464 -6.2977262 -1.7289113
1.3865269 -6.3115411 -1.7314994
1.36575 -6.3061867 -1.7289113
1.3448309 -6.3106809 -1.7289113
1.326982 -6.3243284 -1.7314994
1.3051536 -6.319006 -1.7289113
1.2852951 -6.3230753 -1.7289113
1.2635297 -6.3176103 -1.7263231
1.2455404 -6.3310261 -1.7289113
1.2238104 -6.3254247 -1.7263231
1.2057378 -6.338727 -1.7289113
1.181164 -6.3237004 -1.7237349
1.1630359 -6.3368807 -1.7263231
1.143122 -6.3405032 -1.7263231
1.1259896 -6.3533778 -1.7289113
1.1043682 -6.3473678 -1.7263231
1.0833141 -6.3509951 -1.7263231
1.0665447 -6.3734207 -1.7314994
1.0444981 -6.3574944 -1.7263231
1.02341 -6.3609228 -1.7263231
1.0049255 -6.3736482 -1.7289113
1.0123279 6.9223466 -1.6151487
1.0326319 6.9094954 -1.6128992
1.0543323 6.9062176 -1.6128992
1.0790271 6.9221258 -1.6173981
1.1007669 6.9187021 -1.6173981
1.1212889 6.9154058 -1.6173981
1.1430107 6.9118485 -1.6173981
1.164718 6.9082236 -1.6173981
1.1847669 6.894927 -1.6151487
1.2064208 6.8911715 -1.6151487
1.2297732 6.8969402 -1.6173981
1.2508972 6.8832369 -1.6151487
1.2742863 6.8888545 -1.6173981
1.2929215 6.8754668 -1.6151487
1.3157129 6.8711419 -1.6151487
1.3410165 6.8861032 -1.6196476
1.3607526 6.8722978 -1.6173981
1.3811359 6.8682303 -1.6173981
1.400754 6.854311 -1.6151487
1.4222825 6.8498764 -1.6151487
1.4437937 6.8453746 -1.6151487
1.4652938 6.8408046 -1.6151487
1.4921141 6.8549495 -1.6196476
1.5115386 6.8407145 -1.6173981
1.5330238 6.8359318 -1.6173981
1.5501666 6.8120804 -1.6128992
1.5737535 6.8166704 -1.6151487
1.5929379 6.802206 -1.6128992
1.61655 6.8066483 -1.6151487
1.6412997 6.8207679 -1.6196476
1.6604091 6.8061123 -1.6173981
1.6817849 6.8008618 -1.6173981
1.7031407 6.7955451 -1.6173981
1.7244799 6.7901616 -1.6173981
1.743377 6.7752733 -1.6151487
1.7682931 6.7788835 -1.6173981
1.7920717 6.7827148 -1.6196476
1.8071535 6.7585421 -1.6151487
1.8283758 6.7528315 -1.6151487
1.8495834 6.7470536 -1.6151487
1.8681639 6.7318215 -1.6128992
1.8893052 6.7259188 -1.6128992
1.9157537 6.7386951 -1.6173981
1.9342192 6.7232795 -1.6151487
1.9553334 6.7171693 -1.6151487
1.9764251 6.7109938 -1.6151487
2.0002825 6.7140894 -1.6173981
2.0241754 6.7171016 -1.6196476
2.0395854 6.6920686 -1.6151487
2.0594339 6.685987 -1.6151487
2.0844922 6.6884241 -1.6173981
2.1054959 6.6818419 -1.6173981
2.1294334 6.6844783 -1.6196476
2.1504216 6.6777558 -1.6196476
2.168376 6.6617017 -1.6173981
2.1862504 6.6456003 -1.6151487
2.2132609 6.6571927 -1.6196476
2.2341659 6.6502061 -1.6196476
2.251914 6.6339283 -1.6173981
2.2790678 6.6452541 -1.6218972
2.2999351 6.6380606 -1.6218972
2.3207734 6.6308041 -1.6218972
2.3415952 6.6234798 -1.6218972
2.3591139 6.6069145 -1.6196476
2.3798604 6.5994701 -1.6196476
2.4072485 6.6102724 -1.6241467
2.4212763 6.5843878 -1.6196476
2.448735 6.5950165 -1.6241467
2.4660201 6.5781679 -1.6218972
2.4866757 6.5703878 -1.6218972
2.5142589 6.5807476 -1.6263962
2.5279069 6.5546346 -1.6218972
2.5555575 6.5648198 -1.6263962
2.5761676 6.5567594 -1.6263962
2.5931637 6.5395756 -1.6241467
2.6173146 6.5404434 -1.6263962
2.6305509 6.5141196 -1.6218972
2.6546812 6.5148454 -1.6241467
2.6714287 6.4974623 -1.6218972
2.6918297 6.489037 -1.6218972
2.7095687 6.4710879 -1.6196476
2.7336752 6.4715199 -1.6218972
2.7513008 6.453455 -1.6196476
2.7704384 6.4452624 -1.6196476
2.7867961 6.4275885 -1.6173981
2.809756 6.4282198 -1.6196476
2.8260055 6.4104462 -1.6173981
2.8421738 6.392632 -1.6151487
2.8702173 6.4014521 -1.6196476
2.8943272 6.4012828 -1.6218972
2.9103796 6.3832932 -1.6196476
2.9304175 6.3741188 -1.6196476
2.9556401 6.3732052 -1.6218972
2.9715221 6.3550606 -1.6196476
2.9956231 6.3545098 -1.6218972
3.0113907 6.3362656 -1.6196476
3.035491 6.3355618 -1.6218972
3.0542774 6.3265266 -1.6218972
3.0698757 6.3081379 -1.6196476
3.0896738 6.2984643 -1.6196476
3.1105452 6.2881832 -1.6196476
3.1259389 6.2696595 -1.6173981
3.1499939 6.2685146 -1.6196476
3.1740725 6.2672811 -1.6218972
3.1937449 6.2572794 -1.6218972
3.2078431 6.239109 -1.6196476
3.2319124 6.2376513 -1.6218972
3.2424719 6.2101932 -1.6173981
3.2710383 6.2172227 -1.6218972
3.2859888 6.1983075 -1.6196476
3.3100381 6.1965475 -1.6218972
3.3341081 6.1946969 -1.6241467
3.348907 6.1756272 -1.6218972
3.377634 6.182178 -1.6263962
3.4017365 6.1800728 -1.6286457
3.4164114 6.1608334 -1.6263962
3.4357512 6.1500692 -1.6263962
3.4598327 6.147737 -1.6286457
3.4839337 6.1453142 -1.6308953
3.5128853 6.1512618 -1.6353942
3.5332661 6.1395779 -1.6353942
3.5427654 6.111587 -1.6308953
3.5619469 6.1004276 -1.6308953
3.5860324 6.0976067 -1.6331447
3.6051698 6.0863113 -1.6331447
3.6182234 6.0672183 -1.6308953
3.6372681 6.0558205 -1.6308953
3.6562738 6.0443645 -1.6308953
3.6701741 6.0245275 -1.6286457
3.6890843 6.0129666 -1.6286457
3.7181983 6.0179262 -1.6331447
3.7329869 5.9972901 -1.6308953
3.7518082 5.9855337 -1.6308953
3.7695501 5.9743762 -1.6308953
3.7935274 5.9707274 -1.6331447
3.8017631 5.9423656 -1.6286457
3.8256912 5.9385829 -1.6308953
3.8496275 5.9347119 -1.6331447
3.8629265 5.9144297 -1.6308953
3.8761361 5.8941226 -1.6286457
3.9053912 5.8981652 -1.6331447
3.9239004 5.8858676 -1.6331447
3.9423709 5.8735123 -1.6331447
3.9553499 5.853024 -1.6308953
3.9747391 5.8398743 -1.6308953
3.9875569 5.8193212 -1.6286457
4.0058179 5.806766 -1.6286457
4.0295978 5.8021564 -1.6308953
4.0478077 5.7894673 -1.6308953
4.060369 5.7687531 -1.6286457
4.0841045 5.7639198 -1.6308953
4.0965328 5.7431288 -1.6286457
4.1202397 5.7381449 -1.6308953
4.1372461 5.7258949 -1.6308953
4.1609468 5.7207479 -1.6331447
4.1856513 5.7147799 -1.6353942
4.2035828 5.7016029 -1.6353942
4.2262883 5.6969295 -1.6376437
4.2499938 5.6914325 -1.6398933
4.2678547 5.6780515 -1.6398933
4.309186 5.6956978 -1.6488913
4.3152504 5.6666293 -1.6443923
4.3389606 5.6607761 -1.6466417
4.3567219 5.6471181 -1.6466417
4.3754258 5.6326385 -1.6466417
4.3870974 5.6111898 -1.6443923
4.4167538 5.6126947 -1.6488913
4.4222674 5.5835137 -1.6443923
4.445859 5.5772128 -1.6466417
4.4694576 5.5708175 -1.6488913
4.480814 5.5491686 -1.6466417
4.5043693 5.5426269 -1.6488913
4.5217614 5.5284472 -1.6488913
4.5391064 5.5142155 -1.6488913
4.5564089 5.499927 -1.6488913
4.5799031 5.4930696 -1.6511407
4.6033998 5.4861197 -1.6533903
4.6070881 5.4575448 -1.6488913
4.6305184 5.4504704 -1.6511407
4.654902 5.4424887 -1.6533903
4.6592631 5.4130697 -1.6488913
4.6826243 5.4057708 -1.6511407
4.68678 5.3763423 -1.6466417
4.7229238 5.3835669 -1.6533903
4.7204661 5.3467903 -1.6466417
4.7566566 5.353785 -1.6533903
4.7539678 5.3170252 -1.6466417
4.764133 5.2948194 -1.6443923
4.7676625 5.2653818 -1.6398933
4.7907419 5.2575808 -1.6421427
4.7940664 5.2281399 -1.6376437
4.8104668 5.2130537 -1.6376437
4.8268218 5.1979141 -1.6376437
4.8431263 5.1827254 -1.6376437
4.8460336 5.1532893 -1.6331447
4.8755951 5.1521926 -1.6376437
4.8850369 5.1297951 -1.6353942
4.9011302 5.1144218 -1.6353942
4.9104085 5.0919862 -1.6331447
4.9195948 5.0695434 -1.6308953
4.9423056 5.0610323 -1.6331447
4.95818 5.0454817 -1.6331447
4.9603052 5.0160222 -1.6286457
4.9769111 4.999547 -1.6286457
4.9994879 4.9907718 -1.6308953
5.007359 4.9690509 -1.6286457
5.022944 4.9532962 -1.6286457
5.0454412 4.9443102 -1.6308953
5.0539675 4.921638 -1.6286457
5.0694032 4.9057374 -1.6286457
5.0777683 4.8830318 -1.6263962
5.0930829 4.8670568 -1.6263962
5.101284 4.8443213 -1.6241467
5.1235633 4.8349595 -1.6263962
5.145834 4.8255053 -1.6286457
5.1538415 4.8026714 -1.6263962
5.1689034 4.7864575 -1.6263962
5.1910858 4.7767916 -1.6286457
5.1988754 4.7538857 -1.6263962
5.2137837 4.7375302 -1.6263962
5.2286429 4.7211261 -1.6263962
5.2507 4.7111845 -1.6286457
5.2582011 4.6881824 -1.6263962
5.2801981 4.6781001 -1.6286457
5.2875547 4.6550512 -1.6263962
5.3094873 4.6448307 -1.6286457
5.3240547 4.6281261 -1.6286457
5.3311915 4.6050119 -1.6263962
5.3530269 4.5945849 -1.6286457
5.3748479 4.5840693 -1.6308953
5.3892236 4.5671597 -1.6308953
5.396091 4.543931 -1.6286457
5.4103389 4.5269575 -1.6286457
5.4245353 4.5099363 -1.6286457
5.4394598 4.4919243 -1.6286457
5.453546 4.474812 -1.6286457
5.4675765 4.4576583 -1.6286457
5.4815526 4.4404607 -1.6286457
5.4954772 4.4232163 -1.6286457
5.5093451 4.405931 -1.6286457
5.5231609 4.3885994 -1.6286457
5.5292726 4.36519 -1.6263962
5.5429578 4.3477988 -1.6263962
5.5565906 4.3303618 -1.6263962
5.5778708 4.3188505 -1.6286457
5.5914125 4.3013039 -1.6286457
5.604897 4.2837181 -1.6286457
5.6020637 4.2552824 -1.6241467
5.6239238 4.2425485 -1.6263962
5.6294284 4.2190142 -1.6241467
5.6433873 4.2003245 -1.6241467
5.6558242 4.1835628 -1.6241467
5.6767902 4.1715446 -1.6263962
5.6819987 4.147943 -1.6241467
5.7028913 4.1357913 -1.6263962
5.7237606 4.1235509 -1.6286457
5.7287626 4.0998797 -1.6263962
5.7416139 4.0818629 -1.6263962
5.7544103 4.0638032 -1.6263962
5.7671499 4.0457039 -1.6263962
5.7878227 4.0331402 -1.6286457
5.7924542 4.0093904 -1.6263962
5.8130498 3.9966941 -1.6286457
5.8255782 3.9784105 -1.6286457
5.8380489 3.9600878 -1.6286457
5.8504586 3.9417312 -1.6286457
5.8709121 3.9287496 -1.6308953
5.8669953 3.8995004 -1.6263962
5.8873496 3.8864155 -1.6286457
5.9076781 3.8732443 -1.6308953
5.9116507 3.84935 -1.6286457
5.9318976 3.8360486 -1.6308953
5.9357224 3.8121269 -1.6286457
5.9476686 3.7934616 -1.6286457
5.9677873 3.7799728 -1.6308953
5.9720397 3.7549767 -1.6286457
5.9920731 3.7413554 -1.6308953
6.0031486 3.7235582 -1.6308953
6.0148163 3.7046816 -1.6308953
6.0347366 3.6908522 -1.6331447
6.029645 3.661761 -1.6286457
6.0411196 3.6427987 -1.6286457
6.0608954 3.6288056 -1.6308953
6.0722647 3.6097479 -1.6308953
6.0835748 3.5906546 -1.6308953
6.0948243 3.5715261 -1.6308953
6.1060152 3.5523593 -1.6308953
6.1171465 3.5331573 -1.6308953
6.1282153 3.5139236 -1.6308953
6.1392236 3.4946551 -1.6308953
6.1501713 3.475352 -1.6308953
6.169558 3.4607787 -1.6331447
6.1804008 3.4413776 -1.6331447
6.1997089 3.4266591 -1.6353942
6.210443 3.4071665 -1.6353942
6.2211156 3.38764 -1.6353942
6.2231565 3.3634446 -1.6331447
6.24228 3.3484814 -1.6353942
6.252768 3.3288555 -1.6353942
6.2631946 3.3091967 -1.6353942
6.2735605 3.2895021 -1.6353942
6.2925067 3.2742755 -1.6376437
6.2941055 3.2500188 -1.6353942
6.3042822 3.2302337 -1.6353942
6.3149605 3.2093084 -1.6353942
6.3337126 3.1938386 -1.6376437
6.3262868 3.1652067 -1.6331447
6.344378 3.1507545 -1.6353942
6.3547893 3.1297026 -1.6353942
6.3645911 3.1097212 -1.6353942
6.37433 3.089709 -1.6353942
6.3840046 3.0696695 -1.6353942
6.3936162 3.0495996 -1.6353942
6.411972 3.0336668 -1.6376437
6.4214716 3.0135062 -1.6376437
6.4309082 2.9933159 -1.6376437
6.4402795 2.973099 -1.6376437
6.4495873 2.952853 -1.6376437
6.4588332 2.9325745 -1.6376437
6.4768987 2.9162707 -1.6398933
6.4771318 2.8919342 -1.6376437
6.4950943 2.8755174 -1.6398933
6.5040956 2.8550994 -1.6398933
6.5135283 2.8335135 -1.6398933
6.5134501 2.8091791 -1.6376437
6.5307159 2.7936714 -1.6398933
6.530489 2.7693379 -1.6376437
6.5481391 2.7525852 -1.6398933
6.5477605 2.7282505 -1.6376437
6.5562987 2.7076681 -1.6376437
6.5647736 2.6870556 -1.6376437
6.5822115 2.6700826 -1.6398933
6.5905671 2.6493919 -1.6398933
6.5898061 2.6250663 -1.6376437
6.6070833 2.6079295 -1.6398933
6.6061702 2.5836091 -1.6376437
6.6142535 2.5628438 -1.6376437
6.622272 2.542053 -1.6376437
6.6393337 2.5246975 -1.6398933
6.6563501 2.5072627 -1.6421427
6.655066 2.4829311 -1.6398933
6.6719713 2.4653931 -1.6421427
6.6796842 2.4444182 -1.6421427
6.6873312 2.4234195 -1.6421427
6.6953306 2.4012315 -1.6421427
6.7028418 2.3801837 -1.6421427
6.7106977 2.3579447 -1.6421427
6.7084618 2.3348217 -1.6398933
6.7249761 2.3169069 -1.6421427
6.7318206 2.2969444 -1.6421427
6.7390032 2.2757857 -1.6421427
6.74612 2.2546015 -1.6421427
6.7628107 2.2352774 -1.6443923
6.7698002 2.2140183 -1.6443923
6.776722 2.1927409 -1.6443923
6.7831979 2.1726255 -1.6443923
6.7996545 2.153059 -1.6466417
6.7877879 2.1258638 -1.6421427
6.8130488 2.1102927 -1.6466417
6.810328 2.0860262 -1.6443923
6.8354983 2.0702708 -1.6488913
6.8326344 2.045989 -1.6466417
6.8390284 2.0245149 -1.6466417
6.845355 2.0030177 -1.6466417
6.8609738 1.9842107 -1.6488913
6.8671732 1.9626479 -1.6488913
6.8733058 1.9410625 -1.6488913
6.8887544 1.9220797 -1.6511407
6.8947597 1.9004265 -1.6511407
6.9006953 1.878758 -1.6511407
6.9065633 1.8570709 -1.6511407
6.9029469 1.8328618 -1.6488913
6.9180956 1.8136386 -1.6511407
6.9331927 1.7943352 -1.6533903
6.9387951 1.7725464 -1.6533903
6.9443293 1.7507402 -1.6533903
6.94034 1.726561 -1.6511407
6.9551926 1.7070727 -1.6533903
6.9510512 1.682919 -1.6511407
6.9657812 1.6633378 -1.6533903
6.9804559 1.6436806 -1.6556398
6.9855857 1.6217407 -1.6556398
6.9811478 1.5976146 -1.6533903
6.9861331 1.5756729 -1.6533903
6.9910483 1.5537189 -1.6533903
6.9958949 1.5317495 -1.6533903
7.0101972 1.5118158 -1.6556398
7.0149126 1.4897832 -1.6556398
7.0290947 1.4697368 -1.6578894
7.0241342 1.4456807 -1.6556398
7.0286407 1.4236079 -1.6556398
7.042635 1.4034221 -1.6578894
7.0472507 1.3800583 -1.6578894
7.0515504 1.3579166 -1.6578894
7.056015 1.3345234 -1.6578894
7.0695224 1.3153654 -1.6601387
7.0736203 1.2931474 -1.6601387
7.0776477 1.27092 -1.6601387
7.081605 1.24868 -1.6601387
7.1044807 1.2309879 -1.6646378
7.1083126 1.2086638 -1.6646378
7.1120749 1.1863244 -1.6646378
7.1159697 1.1627349 -1.6646378
7.1388292 1.1434571 -1.6691368
7.1231351 1.1180005 -1.6646378
7.1458731 1.0985795 -1.6691368
7.1396542 1.0746723 -1.6668874
7.1526346 1.0536586 -1.6691368
7.1655536 1.0325739 -1.6713864
7.1591139 1.0086961 -1.6691368
7.1719003 0.98752719 -1.6713864
7.1749673 0.96499252 -1.6713864
7.1779633 0.94244832 -1.6713864
7.1808887 0.91989481 -1.6713864
7.183743 0.89732885 -1.6713864
7.1768546 0.87357664 -1.6691368
7.1989155 0.8533209 -1.673636
7.201561 0.83070201 -1.673636
7.2041349 0.80807495 -1.673636
7.2163243 0.78649217 -1.6758854
7.2187595 0.76381546 -1.6758854
7.2017379 0.7391451 -1.6713864
7.1943283 0.71555352 -1.6691368
7.2062397 0.69388366 -1.6713864
7.1987991 0.66907936 -1.6691368
7.2105708 0.64732957 -1.6713864
7.2028608 0.62383777 -1.6691368
7.2143903 0.60327357 -1.6713864
7.2162499 0.58060735 -1.6713864
7.2180381 0.5579319 -1.6713864
7.2101316 0.53327227 -1.6691368
7.2214904 0.51131135 -1.6713864
7.2230616 0.4886198 -1.6713864
7.2440081 0.4671776 -1.6758854
7.2357144 0.44382247 -1.673636
7.2370729 0.42109004 -1.673636
7.2383604 0.39835343 -1.673636
7.2395759 0.37560943 -1.673636
7.2407203 0.35286173 -1.673636
7.2417932 0.33011401 -1.673636
7.2427945 0.30736303 -1.673636
7.2534604 0.28499153 -1.6758854
7.2445827 0.26184872 -1.673636
7.2551079 0.23940721 -1.6758854
7.2558241 0.21661484 -1.6758854
7.2564688 0.19382034 -1.6758854
7.2570419 0.17102394 -1.6758854
7.2575436 0.14822237 -1.6758854
7.2579732 0.12541935 -1.6758854
7.2680745 0.10275629 -1.6781349
7.2683611 0.079923868 -1.6781349
7.2685766 0.057090659 -1.6781349
7.2687201 0.034253418 -1.6781349
7.2687917 0.011415841 -1.6781349
7.2785354 -0.011433106 -1.6803844
7.2882071 -0.03434512 -1.682634
7.2685766 -0.057088435 -1.6781349
7.2878475 -0.080137298 -1.682634
7.2778168 -0.10289457 -1.6803844
7.2872 -0.1259263 -1.682634
7.2867684 -0.14881906 -1.682634
7.2862649 -0.17171036 -1.682634
7.2856898 -0.19459996 -1.682634
7.2947817 -0.21777837 -1.6848835
7.2940192 -0.24196751 -1.6848835
7.3029604 -0.26523477 -1.687133
7.2923045 -0.28906488 -1.6848835
7.3011498 -0.31111512 -1.687133
7.3001366 -0.33405077 -1.687133
7.2991133 -0.35570922 -1.687133
7.3076239 -0.38041854 -1.6893824
7.3161216 -0.40391132 -1.691632
7.3050895 -0.42632589 -1.6893824
7.3037138 -0.44927335 -1.6893824
7.3119903 -0.4728452 -1.691632
7.3007469 -0.49515477 -1.6893824
7.3088746 -0.51877815 -1.691632
7.2974916 -0.54101664 -1.6893824
7.2957559 -0.56393969 -1.6893824
7.3133731 -0.58842003 -1.6938815
7.3114882 -0.61139268 -1.6938815
7.3095312 -0.63435942 -1.6938815
7.3075023 -0.65731978 -1.6938815
7.3151035 -0.68117708 -1.696131
7.3032284 -0.7032209 -1.6938815
7.310679 -0.72712553 -1.696131
7.3083587 -0.75008905 -1.696131
7.2962761 -0.77201992 -1.6938815
7.2938147 -0.79493797 -1.6938815
7.3009648 -0.81893438 -1.696131
7.2983561 -0.84186697 -1.696131
7.2955241 -0.86606461 -1.696131
7.292767 -0.88897979 -1.696131
7.2900972 -0.91061395 -1.696131
7.2870378 -0.93478376 -1.696131
7.2937255 -0.95894212 -1.6983805
7.2810206 -0.98055089 -1.696131
7.278079 -1.0021496 -1.696131
7.284543 -1.026369 -1.6983805
7.2716389 -1.0478591 -1.696131
7.2777629 -1.0733887 -1.6983805
7.2743549 -1.0962471 -1.6983805
7.2708755 -1.1190947 -1.6983805
7.2673235 -1.1419313 -1.6983805
7.2637005 -1.1647567 -1.6983805
7.2600055 -1.1875703 -1.6983805
7.2658496 -1.2119757 -1.7006301
7.2524004 -1.2331626 -1.6983805
7.2580914 -1.2576042 -1.7006301
7.2445087 -1.2787062 -1.6983805
7.2500463 -1.3031828 -1.7006301
7.2365627 -1.3229362 -1.6983805
7.2321358 -1.3469262 -1.6983805
7.2278686 -1.36964 -1.6983805
7.2232871 -1.3936009 -1.6983805
7.209312 -1.4144108 -1.696131
7.2143884 -1.4389584 -1.6983805
7.2100868 -1.4603575 -1.6983805
7.2054634 -1.4830015 -1.6983805
7.1912317 -1.5036365 -1.696131
7.2055349 -1.5302694 -1.7006301
7.1816425 -1.5487905 -1.696131
7.1862593 -1.5734284 -1.6983805
7.1717691 -1.5938832 -1.696131
7.1762314 -1.6185497 -1.6983805
7.1711111 -1.6410866 -1.6983805
7.1754117 -1.6658106 -1.7006301
7.1606584 -1.6861112 -1.6983805
7.1648035 -1.7108619 -1.7006301
7.1593933 -1.7333623 -1.7006301
7.1539125 -1.7558455 -1.7006301
7.1483612 -1.7783116 -1.7006301
7.1332908 -1.798378 -1.6983805
7.1276059 -1.820779 -1.6983805
7.1215286 -1.8444049 -1.6983805
7.1156993 -1.8667687 -1.6983805
7.1192164 -1.8916162 -1.7006301
7.1135726 -1.9127309 -1.7006301
7.1075287 -1.9350696 -1.7006301
7.0916796 -1.9560374 -1.6983805
7.0854993 -1.978307 -1.6983805
7.0889754 -2.0019696 -1.7006301
7.0729294 -2.0227871 -1.6983805
7.0758996 -2.0477061 -1.7006301
7.0694318 -2.0699253 -1.7006301
7.0535512 -2.0893571 -1.6983805
7.0376191 -2.1087096 -1.696131
7.0496097 -2.1364603 -1.7006301
7.0428629 -2.1585968 -1.7006301
7.0360465 -2.180712 -1.7006301
7.0198631 -2.1998916 -1.6983805
7.0036287 -2.2189915 -1.696131
7.0151815 -2.2469273 -1.7006301
6.9988179 -2.2659538 -1.6983805
7.0009255 -2.2909603 -1.7006301
6.9844427 -2.3098834 -1.6983805
6.986393 -2.334903 -1.7006301
6.9605598 -2.3506048 -1.696131
6.9531412 -2.3724604 -1.696131
6.9456534 -2.3942926 -1.696131
6.9380975 -2.416101 -1.696131
6.9304729 -2.4378858 -1.696131
6.9227796 -2.4596465 -1.696131
6.9145851 -2.4825897 -1.696131
6.8975911 -2.5009789 -1.6938815
6.899291 -2.5247819 -1.696131
6.8908806 -2.547647 -1.696131
6.882843 -2.5692828 -1.696131
6.8747373 -2.590893 -1.696131
6.8665638 -2.612478 -1.696131
6.8492265 -2.6305435 -1.6938815
6.8595624 -2.6578946 -1.6983805
6.8421044 -2.6758826 -1.696131
6.8336639 -2.6973646 -1.696131
6.8156304 -2.7164032 -1.6938815
6.816103 -2.7414379 -1.696131
6.807457 -2.7628376 -1.696131
6.8077602 -2.7879028 -1.6983805
6.7989683 -2.8092761 -1.6983805
6.7811155 -2.8268728 -1.696131
6.7722015 -2.8481622 -1.696131
6.7632203 -2.8694236 -1.696131
6.7541723 -2.8906567 -1.696131
6.754003 -2.9157231 -1.6983805
6.7358766 -2.933037 -1.696131
6.7355499 -2.958102 -1.6983805
6.7262235 -2.9792476 -1.6983805
6.7168307 -3.0003638 -1.6983805
6.7073717 -3.0214505 -1.6983805
6.706718 -3.0465374 -1.7006301
6.6882553 -3.0635343 -1.6983805
6.6785979 -3.0845311 -1.6983805
6.6688743 -3.1054971 -1.6983805
6.6590853 -3.1264329 -1.6983805
6.6492305 -3.1473372 -1.6983805
6.6481042 -3.1724072 -1.7006301
6.629324 -3.1890533 -1.6983805
6.6192727 -3.2098644 -1.6983805
6.6004024 -3.2263644 -1.696131
6.6077147 -3.2556975 -1.7006301
6.588727 -3.2721059 -1.6983805
6.5784149 -3.292789 -1.6983805
6.568038 -3.3134391 -1.6983805
6.5575957 -3.3340569 -1.6983805
6.5557613 -3.3590851 -1.7006301
6.5538335 -3.3841345 -1.7028795
6.5252895 -3.3968508 -1.6983805
6.5318432 -3.4263864 -1.7028795
6.5124326 -3.4423366 -1.7006301
6.501586 -3.462779 -1.7006301
6.490675 -3.4831872 -1.7006301
6.4797006 -3.5035608 -1.7006301
6.4772182 -3.5285614 -1.7028795
6.4575591 -3.5442047 -1.7006301
6.4549198 -3.5691888 -1.7028795
6.435163 -3.5847085 -1.7006301
6.4323664 -3.6096759 -1.7028795
6.4125128 -3.625071 -1.7006301
6.4095597 -3.6500196 -1.7028795
6.3980608 -3.6701381 -1.7028795
6.3949361 -3.6950948 -1.705129
6.383296 -3.7151668 -1.705129
6.371593 -3.7352026 -1.705129
6.3514366 -3.7502468 -1.7028795
6.3396235 -3.7701819 -1.7028795
6.3277478 -3.7900796 -1.7028795
6.3158097 -3.8099401 -1.7028795
6.3038096 -3.8297627 -1.7028795
6.2917471 -3.8495479 -1.7028795
6.2796221 -3.8692951 -1.7028795
6.2757149 -3.8941414 -1.705129
6.2634501 -3.9138379 -1.705129
6.2593699 -3.9386852 -1.7073785
6.2716575 -3.9739754 -1.7141271
6.2755699 -4.0041409 -1.7186261
6.2622571 -4.0249295 -1.7186261
6.2495818 -4.0445828 -1.7186261
6.2286806 -4.058877 -1.7163765
6.2240458 -4.0837703 -1.7186261
6.211185 -4.1033034 -1.7186261
6.2063766 -4.1281924 -1.7208756
6.1852813 -4.1422482 -1.7186261
6.1722374 -4.1616592 -1.7186261
