# .PCD v0.7 - Point Cloud Data file format
VERSION 0.7
FIELDS x y z
SIZE 4 4 4
TYPE F F F
COUNT 1 1 1
WIDTH 1462
HEIGHT 1
VIEWPOINT 0 0 0 1 0 0 0
POINTS 1462
DATA ascii
6.2969899 -3.9638917 -1.4463322
6.1327577 -4.108624 -1.4348836
6.1116815 -4.1223812 -1.4329755
6.082459 -4.1305318 -1.4291593
6.053246 -4.1385393 -1.4253432
6.0321283 -4.1519704 -1.4234351
6.0029182 -4.1597185 -1.419619
5.9898205 -4.1785564 -1.419619
5.9766636 -4.1973538 -1.419619
5.9714627 -4.221776 -1.421527
5.9334402 -4.2244744 -1.4158027
5.9465833 -4.2903895 -1.4253432
5.6533833 -4.4985156 -1.4043541
5.6468854 -4.5223899 -1.4062623
5.6097217 -4.5216269 -1.400538
5.4196281 -4.6880102 -1.3929056
5.3152313 -4.8060513 -1.3929056
5.3066483 -4.8592405 -1.3986299
5.2841372 -4.8692355 -1.3967218
5.2760119 -4.892487 -1.3986299
5.2606163 -4.9090376 -1.3986299
5.2380118 -4.9188204 -1.3967218
5.2296677 -4.9419942 -1.3986299
5.2070026 -4.9516344 -1.3967218
5.191421 -4.9679685 -1.3967218
5.1687174 -4.9774446 -1.3948138
5.1601043 -5.0004888 -1.3967218
5.1443691 -5.016675 -1.3967218
5.1285834 -5.0328116 -1.3967218
5.1127472 -5.0488987 -1.3967218
5.0898976 -5.0580168 -1.3948138
5.0748677 -5.0730968 -1.3948138
5.0580173 -5.0898976 -1.3948138
5.0420017 -5.105763 -1.3948138
5.0250425 -5.1224546 -1.3948138
5.016675 -5.1443696 -1.3967218
5.0004888 -5.1601038 -1.3967218
4.9774442 -5.1687179 -1.3948138
4.9611816 -5.184329 -1.3948138
4.9381061 -5.1927757 -1.3929056
4.9285102 -5.2153988 -1.3948138
4.9053812 -5.2237 -1.3929056
4.8889461 -5.2390852 -1.3929056
4.8657889 -5.2472205 -1.3909975
4.8625836 -5.2769189 -1.3948138
4.8327236 -5.2776895 -1.3909975
4.8227258 -5.300106 -1.3929056
4.7994676 -5.3079505 -1.3909975
4.7893295 -5.3303032 -1.3929056
4.7725596 -5.3453236 -1.3929056
4.749229 -5.3529477 -1.3909975
4.7388802 -5.3752046 -1.3929056
4.7219701 -5.3900657 -1.3929056
4.6985683 -5.39747 -1.3909975
4.6880102 -5.4196281 -1.3929056
4.6645627 -5.4268847 -1.3909975
4.6465406 -5.4423232 -1.3909975
4.6357708 -5.4643793 -1.3929056
4.6176243 -5.479722 -1.3929056
4.5950427 -5.4858732 -1.3909975
4.5840645 -5.5078273 -1.3929056
4.5614457 -5.5138407 -1.3909975
4.550334 -5.5357265 -1.3929056
4.5329204 -5.5499949 -1.3929056
4.5154629 -5.5642076 -1.3929056
4.4979596 -5.5783663 -1.3929056
4.4794364 -5.5932512 -1.3929056
4.4618425 -5.6072965 -1.3929056
4.4442053 -5.6212854 -1.3929056
4.4265232 -5.6352201 -1.3929056
4.3553615 -5.6903987 -1.3929056
4.3434048 -5.7118673 -1.3948138
4.3195219 -5.7176514 -1.3929056
9.6696301 -0.87319911 -1.5377508
9.7160091 -0.90816879 -1.5455725
8.2960825 -2.1223569 -1.3562869
8.3272409 -2.1597745 -1.3625442
8.3013096 -2.1809051 -1.3594155
8.2753277 -2.2018943 -1.3562869
8.2496834 -2.221302 -1.3531581
8.2236061 -2.2420123 -1.3500295
8.1970854 -2.2640114 -1.3469007
8.161396 -2.281774 -1.3422078
8.1545897 -2.305979 -1.3422078
8.118413 -2.324851 -1.3375148
8.0920954 -2.344846 -1.334386
8.0752106 -2.3674777 -1.3328216
8.0487957 -2.3872182 -1.329693
8.0223351 -2.4068158 -1.3265642
8.0052834 -2.4291391 -1.325
7.9787273 -2.4484811 -1.3218713
7.9521294 -2.4676802 -1.3187425
7.9254904 -2.4867365 -1.3156139
7.8988094 -2.5056498 -1.3124851
7.8814945 -2.5274365 -1.3109208
7.8547235 -2.5460935 -1.3077921
7.8372998 -2.5676818 -1.3062277
7.819819 -2.5891864 -1.3046635
7.8022795 -2.6106064 -1.3030992
7.7753258 -2.628778 -1.2999704
7.7576833 -2.6499994 -1.2984061
7.7213097 -2.664691 -1.293713
7.7035742 -2.685684 -1.2921487
7.6764665 -2.7033105 -1.2890199
7.6679358 -2.7274134 -1.2890199
7.6402602 -2.7461448 -1.2858914
7.6130266 -2.7633936 -1.2827626
7.5769873 -2.8043163 -1.2796339
7.5126286 -2.8073621 -1.2702478
7.5499773 -2.848382 -1.2780696
7.5133009 -2.8615403 -1.2733765
7.4950557 -2.8815858 -1.2718122
7.4588466 -2.893096 -1.2671192
7.4497209 -2.9165144 -1.2671192
7.4221506 -2.9326451 -1.2639905
7.4032106 -2.9535816 -1.2624261
7.3755713 -2.9694474 -1.2592975
7.3570557 -2.9888864 -1.2577331
7.3384905 -3.0082381 -1.2561687
7.3198762 -3.0275025 -1.2546043
7.3012142 -3.0466805 -1.2530402
7.2825036 -3.0657704 -1.2514758
7.2637448 -3.0847733 -1.2499114
7.2449393 -3.1036887 -1.248347
7.21702 -3.1185982 -1.2452184
7.1981325 -3.1373091 -1.243654
7.1701574 -3.1519578 -1.2405254
7.1602197 -3.1744678 -1.2405254
7.1411948 -3.1929152 -1.238961
7.1221251 -3.2112744 -1.2373966
7.0940189 -3.2254574 -1.234268
7.0838509 -3.2477281 -1.234268
7.0556827 -3.2616775 -1.2311393
7.0454006 -3.2838273 -1.2311393
7.0261102 -3.3017442 -1.2295749
7.0067773 -3.3195722 -1.2280105
6.9784889 -3.333055 -1.2248819
6.959084 -3.350677 -1.2233175
6.9307523 -3.3638978 -1.2201889
6.9201503 -3.3856544 -1.2201889
6.8917632 -3.3986413 -1.2170601
6.8133006 -3.4670577 -1.2108028
6.765059 -3.4961946 -1.2061098
6.753428 -3.518609 -1.2061098
6.7161059 -3.5260346 -1.2014167
6.7573781 -3.5748279 -1.2108028
6.7112503 -3.577455 -1.2045454
6.6999784 -3.5985215 -1.2045454
6.671267 -3.6101508 -1.2014167
6.6512208 -3.6263633 -1.1998523
6.6311388 -3.6424856 -1.198288
6.6023788 -3.6537354 -1.1951593
6.5822411 -3.6696494 -1.1935949
6.5706801 -3.6903102 -1.1935949
6.5590544 -3.7109344 -1.1935949
6.5302014 -3.7217407 -1.1904663
6.518477 -3.7422373 -1.1904663
6.4981384 -3.7577534 -1.1889019
6.477766 -3.7731779 -1.1873375
6.4573617 -3.7885113 -1.1857733
6.4454279 -3.8087792 -1.1857733
6.424943 -3.8239577 -1.1842089
6.4128981 -3.8441234 -1.1842089
6.3923345 -3.8591468 -1.1826446
6.3717394 -3.8740783 -1.1810802
6.3595371 -3.8940766 -1.1810802
6.3388653 -3.9088523 -1.1795158
6.3181634 -3.9235363 -1.1779515
6.3058062 -3.9433661 -1.1779515
6.2850289 -3.9578941 -1.1763872
6.2642226 -3.9723299 -1.1748228
6.2517123 -3.9919899 -1.1748228
6.1792846 -4.0853281 -1.1732585
6.1581979 -4.0992475 -1.1716942
6.137085 -4.1130753 -1.1701298
6.107758 -4.1212864 -1.1670011
6.0866103 -4.1349034 -1.1654367
6.0735903 -4.1540046 -1.1654367
6.0523753 -4.1674638 -1.1638725
6.0473704 -4.1920838 -1.1654367
6.0260715 -4.205409 -1.1638725
5.6832051 -4.4370122 -1.1419716
5.6614718 -4.4487424 -1.1404073
5.62568 -4.478075 -1.1388429
5.6270003 -4.5080776 -1.1419716
5.6281877 -4.5381322 -1.1451002
5.6369114 -4.5744624 -1.1497934
5.5842633 -4.5609097 -1.1419716
5.5851674 -4.5909743 -1.1451002
5.5554967 -4.5959063 -1.1419716
5.5182595 -4.594378 -1.1372786
5.5037985 -4.6116915 -1.1372786
5.4817324 -4.622592 -1.1357142
5.4671831 -4.6397905 -1.1357142
5.451767 -4.6578951 -1.1357142
5.4371071 -4.6749992 -1.1357142
5.4373312 -4.7049828 -1.1388429
5.4150748 -4.7155557 -1.1372786
5.3325567 -4.8234086 -1.1388429
5.3173771 -4.8401375 -1.1388429
5.2948623 -4.8501472 -1.1372786
5.2868609 -4.8734517 -1.1388429
5.2570424 -4.8766031 -1.1357142
5.2561359 -4.9065738 -1.1388429
5.2262983 -4.9095373 -1.1357142
5.2180262 -4.9327173 -1.1372786
5.2025042 -4.9490857 -1.1372786
5.1869302 -4.9654055 -1.1372786
5.1641917 -4.974824 -1.1357142
5.1556296 -4.9978976 -1.1372786
5.1328325 -5.0071726 -1.1357142
5.1170764 -5.0232735 -1.1357142
5.1012702 -5.0393243 -1.1357142
5.0854139 -5.0553255 -1.1357142
5.0634079 -5.0634084 -1.1341499
5.0465889 -5.0801716 -1.1341499
5.0375433 -5.1030293 -1.1357142
5.0205932 -5.1197062 -1.1357142
5.0053806 -5.1345801 -1.1357142
4.9823537 -5.1431856 -1.1341499
4.9661708 -5.158813 -1.1341499
4.9499397 -5.1743889 -1.1341499
4.9336591 -5.1899142 -1.1341499
4.9173307 -5.2053881 -1.1341499
4.8874335 -5.206408 -1.1310213
4.8777895 -5.2289591 -1.1325855
4.8546243 -5.2370138 -1.1310213
4.8448391 -5.2595038 -1.1325855
4.8282924 -5.2746983 -1.1325855
4.811697 -5.2898407 -1.1325855
4.7950549 -5.3049312 -1.1325855
4.784966 -5.3273168 -1.1341499
4.7550521 -5.3275857 -1.1310213
4.7448449 -5.3498869 -1.1325855
4.7280145 -5.3647671 -1.1325855
4.7111373 -5.3795938 -1.1325855
4.6942134 -5.3943682 -1.1325855
4.6772437 -5.4090886 -1.1325855
4.6602268 -5.4237561 -1.1325855
4.6486282 -5.4466925 -1.1341499
4.6251054 -5.4537373 -1.1325855
4.6069946 -5.4690442 -1.1325855
4.5907478 -5.4826894 -1.1325855
4.5798178 -5.5046773 -1.1341499
4.5571704 -5.5106301 -1.1325855
4.5461059 -5.5325513 -1.1341499
4.5287027 -5.5468059 -1.1341499
4.5112548 -5.5610056 -1.1341499
4.4875636 -5.567461 -1.1325855
4.4752493 -5.5900221 -1.1341499
4.4576654 -5.604054 -1.1341499
4.4400382 -5.6180301 -1.1341499
4.4223666 -5.6319513 -1.1341499
4.4046516 -5.6458168 -1.1341499
4.3929434 -5.6674333 -1.1357142
4.3512464 -5.6870785 -1.1341499
4.3154268 -5.6771307 -1.1294569
4.3273325 -5.7300692 -1.1372786
4.3152366 -5.7515359 -1.1388429
4.2853413 -5.7492261 -1.1357142
4.2790136 -5.7785358 -1.1388429
4.2666917 -5.7999063 -1.1404073
4.2601056 -5.8292303 -1.143536
4.2417712 -5.8425851 -1.143536
12.012895 1.2647223 -1.4831499
12.036556 1.2289952 -1.4855872
10.895999 0.21682423 -1.3381253
10.856931 0.18192412 -1.3332505
10.8376 0.14754707 -1.3308133
10.788385 0.11298142 -1.3247198
10.748986 0.078794084 -1.319845
10.709479 0.044860553 -1.3149703
10.689715 0.011191704 -1.3125328
10.640071 -0.022284543 -1.3064393
10.590322 -0.055451304 -1.3003459
10.590096 -0.088721454 -1.3003459
10.470668 -0.12061877 -1.2857217
10.349253 -0.2493156 -1.2710972
10.125732 -0.40669143 -1.2442861
10.142888 -0.46945581 -1.2467233
10.00738 -0.58928978 -1.2308803
9.9559479 -0.61765301 -1.2247869
9.9341497 -0.64763606 -1.2223495
9.902359 -0.6768114 -1.2186935
9.8902836 -0.70720929 -1.2174747
9.8781147 -0.73753798 -1.216256
9.8064804 -0.76317656 -1.2077252
9.5433722 -0.92396569 -1.1772579
9.520669 -0.95196736 -1.1748204
9.4487772 -1.0648601 -1.1675084
9.3924255 -1.119979 -1.1614149
9.3691578 -1.1470681 -1.1589775
9.3361673 -1.1711557 -1.1553214
9.3125448 -1.199573 -1.152884
9.2890491 -1.2262254 -1.1504465
9.2556438 -1.2514122 -1.1467905
9.2125616 -1.2734324 -1.1419158
9.1213655 -1.3501797 -1.1321661
9.0832748 -1.4029188 -1.1285101
9.0494089 -1.4268101 -1.124854
9.0252838 -1.4520795 -1.1224166
9.0010881 -1.4772111 -1.1199793
8.9768248 -1.5022053 -1.1175419
8.9524927 -1.5270615 -1.1151044
8.9280939 -1.5517797 -1.1126671
8.8840809 -1.572899 -1.1077924
8.8790951 -1.6008013 -1.1077924
8.8450174 -1.6217688 -1.1041362
8.8298349 -1.6492689 -1.1029176
8.7953568 -1.6714411 -1.0992614
8.7800217 -1.6987132 -1.0980428
8.7454243 -1.7205399 -1.0943867
8.7205114 -1.7441128 -1.0919493
8.6958437 -1.7660284 -1.0895119
8.6708117 -1.7893267 -1.0870745
8.6360044 -1.8104484 -1.0834184
8.6205664 -1.8355035 -1.0821998
8.595355 -1.8583814 -1.0797623
8.5797796 -1.8832474 -1.0785437
8.5350685 -1.9015585 -1.0736688
8.519372 -1.9261743 -1.0724503
8.4842558 -1.9462711 -1.0687941
8.4684334 -1.9706661 -1.0675755
8.4428797 -1.9927007 -1.065138
8.4172726 -2.0145943 -1.0627007
8.3916111 -2.0363467 -1.0602633
8.3851719 -2.0626996 -1.0602633
8.3593884 -2.0842297 -1.0578258
8.3239307 -2.1031868 -1.0541698
8.2884369 -2.121942 -1.0505137
8.2621393 -2.1444287 -1.0480763
8.2361641 -2.1653271 -1.0456389
8.2101374 -2.1860833 -1.0432016
8.1940327 -2.2078514 -1.0419829
8.1679039 -2.228358 -1.0395454
8.1413364 -2.2501433 -1.0371082
8.1151104 -2.2703605 -1.0346707
8.0892382 -2.2890236 -1.0322334
8.0720615 -2.3131018 -1.0310147
8.0456886 -2.332921 -1.0285772
8.0287952 -2.3553917 -1.0273585
8.002326 -2.3749554 -1.0249212
7.9853187 -2.3972297 -1.0237025
7.9587541 -2.4165373 -1.0212651
7.9321461 -2.4357011 -1.0188277
7.9054976 -2.4547222 -1.0163903
7.8788071 -2.4735997 -1.0139529
7.8615365 -2.4953365 -1.0127342
7.8347573 -2.513957 -1.0102968
7.8268209 -2.5385582 -1.0102968
7.7905126 -2.553859 -1.0066408
7.7730289 -2.5751994 -1.0054221
7.7554879 -2.5964551 -1.0042033
7.7284889 -2.6144459 -1.0017661
7.7014527 -2.6322925 -0.99932861
7.6931453 -2.6564741 -0.99932861
7.6566472 -2.6708226 -0.99567252
7.6482186 -2.6948636 -0.99567252
7.6210122 -2.7122219 -0.99323511
7.6026363 -2.7341201 -0.99201638
7.5753512 -2.7512147 -0.98957908
7.4834533 -2.7711835 -0.97982955
7.4844651 -2.8251588 -0.98226684
7.466279 -2.8451235 -0.98104823
7.438776 -2.8614385 -0.97861081
7.430253 -2.8834972 -0.97861081
7.4026747 -2.899586 -0.97617346
7.3935285 -2.922828 -0.97617346
7.3653588 -2.9399703 -0.97373605
7.34688 -2.9593863 -0.97251737
7.3191566 -2.9749777 -0.97007996
7.3189573 -3.0017231 -0.97129864
7.2911482 -3.0171113 -0.96886128
7.2724748 -3.0361784 -0.96764261
7.2354589 -3.0474522 -0.96398652
7.2258492 -3.0701683 -0.96398652
7.1979227 -3.0850334 -0.9615491
7.1790843 -3.1036925 -0.96033037
7.1602006 -3.1222639 -0.95911175
7.1412706 -3.1407468 -0.95789301
7.1132226 -3.1551173 -0.9554556
7.1032753 -3.1774485 -0.9554556
7.0842109 -3.1956673 -0.95423698
7.0651016 -3.2137973 -0.95301825
7.0459485 -3.2318392 -0.95179957
7.026752 -3.2497923 -0.95058084
7.0075121 -3.267657 -0.94936216
6.9882298 -3.2854323 -0.94814348
6.9599357 -3.2988679 -0.94570607
6.9405823 -3.3164377 -0.94448739
6.9211869 -3.3339183 -0.94326872
6.8928218 -3.3469746 -0.9408313
6.8822732 -3.3686123 -0.9408313
6.8627553 -3.3858259 -0.93961263
6.8431973 -3.4029493 -0.93839395
6.8235998 -3.4199839 -0.93717527
6.8039622 -3.4369285 -0.93595654
6.7931314 -3.458287 -0.93595654
6.7734022 -3.4750803 -0.9347378
6.7536349 -3.4917841 -0.93351918
6.7420187 -3.5141606 -0.93351918
6.7133708 -3.5260935 -0.93108177
6.6847153 -3.5378811 -0.92864442
6.6735678 -3.5588641 -0.92864442
6.6536107 -3.5751138 -0.92742568
6.6248894 -3.5865486 -0.92498827
6.6135893 -3.6073434 -0.92498827
6.5935259 -3.6233227 -0.92376959
6.5734262 -3.6392119 -0.92255092
6.5619612 -3.6598449 -0.92255092
6.5417781 -3.6755798 -0.92133224
6.5215607 -3.6912241 -0.9201135
6.5013099 -3.7067778 -0.91889483
6.4896326 -3.7271838 -0.91889483
6.477891 -3.7475536 -0.91889483
6.45751 -3.7628887 -0.91767615
6.4370971 -3.7781327 -0.91645747
6.4166517 -3.7932856 -0.91523874
6.4047031 -3.8134253 -0.91523874
6.3756666 -3.8233182 -0.91280138
6.3551278 -3.8381982 -0.91158271
6.3345585 -3.8529863 -0.91036397
6.3308868 -3.8780525 -0.91158271
6.3017774 -3.8875 -0.9091453
6.2895331 -3.9072788 -0.9091453
6.2603979 -3.9164906 -0.90670794
6.2648592 -3.9467192 -0.9091453
6.2356668 -3.9557481 -0.90670794
6.2232089 -3.9753182 -0.90670794
6.2016449 -3.9905622 -0.90548921
6.1807475 -4.0046287 -0.90427047
6.1515102 -4.0131798 -0.90183312
6.1222806 -4.0215869 -0.8993957
6.0781589 -4.1586866 -0.90427047
6.0568905 -4.1721306 -0.90305179
6.0355968 -4.1854825 -0.90183312
5.998003 -4.1873784 -0.89817703
5.992939 -4.2119074 -0.8993957
5.9634719 -4.2192492 -0.89695835
5.9494476 -4.2390013 -0.89695835
5.9280362 -4.2518864 -0.89573967
5.914649 -4.2704892 -0.89573967
5.8939219 -4.2821851 -0.89452094
5.8804402 -4.3006802 -0.89452094
5.8589072 -4.3132486 -0.89330226
5.8365979 -4.3267431 -0.89208359
5.815022 -4.3391223 -0.89086491
5.7926655 -4.3524189 -0.88964617
5.779726 -4.3695869 -0.88964617
5.7501731 -4.3757019 -0.88720882
5.744278 -4.3997803 -0.8884275
5.7225661 -4.4117446 -0.88720882
5.7008367 -4.4236164 -0.88599014
5.6869116 -4.441504 -0.88599014
5.6651268 -4.4532142 -0.88477141
5.6433249 -4.4648314 -0.88355273
5.6370349 -4.4887209 -0.88477141
5.61516 -4.5002012 -0.88355273
5.6009946 -4.5178194 -0.88355273
5.5790682 -4.5291371 -0.88233405
5.5724983 -4.5529218 -0.88355273
5.5505009 -4.5641017 -0.88233405
5.5437818 -4.5878448 -0.88355273
5.5293412 -4.6052384 -0.88355273
5.5148458 -4.6225867 -0.88355273
5.3884926 -4.6940613 -0.87745923
5.3811831 -4.7175093 -0.87867796
5.3812218 -4.7475243 -0.88111538
5.3588581 -4.7578163 -0.87989664
5.3438845 -4.7746286 -0.87989664
5.3214774 -4.7847571 -0.87867796
5.3064198 -4.8014512 -0.87867796
5.2913089 -4.8180985 -0.87867796
5.2761469 -4.8346977 -0.87867796
5.2536354 -4.8445206 -0.87745923
5.2456656 -4.867753 -0.87867796
5.2303472 -4.8842087 -0.87867796
5.1470532 -4.9289532 -0.87502187
5.1074748 -4.9841757 -0.87624061
5.0847092 -4.9932418 -0.87502187
5.0760574 -5.0161686 -0.87624061
5.0602736 -5.0320907 -0.87624061
5.045321 -5.0470824 -0.87624061
5.0145683 -5.0497003 -0.8738032
5.0056515 -5.0724931 -0.87502187
4.9749064 -5.0748892 -0.87258446
4.9667544 -5.096736 -0.8738032
4.9507184 -5.1123142 -0.8738032
4.941515 -5.134994 -0.87502187
4.9116392 -5.1361461 -0.87258446
4.9091535 -5.1659412 -0.87502187
4.879271 -5.1669049 -0.87258446
4.8698068 -5.1894464 -0.8738032
4.8467102 -5.1974602 -0.87258446
4.8072348 -5.2205086 -0.87136579
4.7841101 -5.2282629 -0.87014711
4.7511654 -5.2582192 -0.87014711
4.7180338 -5.2879677 -0.87014711
4.6847153 -5.3175073 -0.87014711
4.6707554 -5.3693027 -0.8738032
4.6473732 -5.376441 -0.87258446
4.6304593 -5.3910146 -0.87258446
4.6125574 -5.4063396 -0.87258446
4.6019683 -5.4283752 -0.8738032
4.5775485 -5.4360137 -0.87258446
4.561399 -5.4495716 -0.87258446
4.5442567 -5.4638743 -0.87258446
4.5343494 -5.4849834 -0.8738032
4.5170951 -5.4992018 -0.8738032
4.4997964 -5.5133657 -0.8738032
4.4824533 -5.5274749 -0.8738032
4.4650664 -5.5415297 -0.8738032
4.4466653 -5.5563059 -0.8738032
4.4291878 -5.5702481 -0.8738032
4.41782 -5.5919228 -0.87502187
4.4063587 -5.6135821 -0.87624061
4.3887014 -5.6273975 -0.87624061
4.3710008 -5.6411572 -0.87624061
4.3411484 -5.6391311 -0.8738032
4.3294406 -5.6606255 -0.87502187
4.311636 -5.6741986 -0.87502187
4.2997694 -5.6956377 -0.87624061
4.2878094 -5.7170582 -0.87745923
4.2638974 -5.7225413 -0.87624061
4.2518034 -5.743886 -0.87745923
13.231064 2.4092622 -1.1766025
13.25818 2.3711939 -1.1783456
12.043329 1.3040708 -1.0598137
11.99783 1.2610192 -1.055456
11.932359 1.2162519 -1.0493551
11.886552 1.1738664 -1.0449973
11.860629 1.131601 -1.0423826
11.814526 1.0897614 -1.0380249
11.758355 1.0473332 -1.0327954
11.702035 1.0052801 -1.0275662
11.675182 0.96808201 -1.0249515
11.618584 0.92664331 -1.0197221
11.581861 0.88507563 -1.0162359
11.534907 0.84504324 -1.0118781
11.487817 0.80532557 -1.0075203
11.440592 0.76590115 -1.0031625
11.403175 0.72741574 -0.99967629
11.375573 0.68978137 -0.99706161
11.327956 0.6511842 -0.99270386
11.270263 0.61235255 -0.9874745
11.172641 0.57184762 -0.97875893
11.146158 0.50029588 -0.97614425
11.097908 0.46320173 -0.9717865
11.069446 0.42717874 -0.96917182
11.020954 0.39063871 -0.96481401
10.962387 0.35408074 -0.95958471
10.933572 0.3187708 -0.95696998
10.894685 0.28338638 -0.95348376
10.865644 0.24847201 -0.95086908
10.81657 0.21335517 -0.94651133
10.777345 0.17870913 -0.94302511
10.738008 0.14431682 -0.93953884
10.698564 0.11017343 -0.93605262
10.668972 0.076345481 -0.933438
10.619349 0.042629667 -0.92908019
10.589546 0.0092387153 -0.92646551
10.559636 -0.023959093 -0.92385077
10.519662 -0.056917403 -0.92036456
10.479585 -0.08962477 -0.91687834
10.449368 -0.1221974 -0.91426367
10.41905 -0.15458106 -0.91164905
10.378672 -0.18659635 -0.90816283
10.175274 -0.34466025 -0.89073163
9.6612062 -0.78411102 -0.84802532
9.6388426 -0.81278467 -0.84628224
9.626317 -0.8421936 -0.84541065
9.6406717 -0.90452164 -0.84715372
9.5287132 -0.92422521 -0.83756661
9.5059385 -0.95217019 -0.83582354
9.5029011 -0.98202926 -0.83582354
9.4799566 -1.0097682 -0.8340804
9.4536266 -1.0670776 -0.83233732
8.984024 -1.418108 -0.7957319
8.9407835 -1.4977783 -0.79311717
8.9065752 -1.5208288 -0.79050255
8.9017534 -1.5488021 -0.79050255
8.8576069 -1.5698065 -0.78701633
8.833025 -1.5940872 -0.78527325
8.7985792 -1.6164289 -0.78265852
8.7836657 -1.6422317 -0.78178704
8.7585993 -1.6676238 -0.78004384
8.7337561 -1.6913433 -0.7783007
8.6990767 -1.7129987 -0.77568603
8.6838837 -1.7383639 -0.77481449
8.5601864 -1.7961137 -0.76522738
8.5350161 -1.8188449 -0.7634843
8.4980478 -1.8948674 -0.76174116
8.472621 -1.9171584 -0.75999808
8.4471378 -1.9393083 -0.75825495
8.4313002 -1.9635766 -0.75738335
8.4057007 -1.9854743 -0.75564027
8.3897333 -2.0095513 -0.75476867
8.3543377 -2.0288458 -0.75215405
8.3382492 -2.0527 -0.75128245
8.302762 -2.0716503 -0.74866784
8.2768965 -2.0928397 -0.74692464
8.2506123 -2.1153276 -0.74518162
8.2342834 -2.1387327 -0.74431002
8.2082548 -2.1595216 -0.74256688
8.1821785 -2.1801682 -0.74082381
8.1660557 -2.2018418 -0.73995221
8.1398773 -2.2222381 -0.73820913
8.1132603 -2.2439077 -0.73646599
8.0773916 -2.261328 -0.73385131
8.0606632 -2.283977 -0.73297977
8.0342951 -2.303797 -0.73123664
8.0174513 -2.3262503 -0.7303651
7.9909863 -2.3458145 -0.72862196
7.9740272 -2.3680711 -0.72775036
7.9474673 -2.3873787 -0.72600728
7.9208641 -2.4065425 -0.72426414
7.9132648 -2.4314146 -0.72426414
7.8770471 -2.4473958 -0.72164953
7.8503122 -2.4661589 -0.71990645
7.8330307 -2.4877934 -0.71903485
7.8156915 -2.5093441 -0.71816325
7.7888188 -2.5277352 -0.71642023
7.7713737 -2.549087 -0.71554863
7.7444148 -2.5672197 -0.7138055
7.7174196 -2.5852084 -0.71206242
7.70926 -2.6094406 -0.71206242
7.6727457 -2.623976 -0.70944768
7.6550493 -2.6448147 -0.7085762
7.6372967 -2.6655681 -0.7077046
7.6194892 -2.6862357 -0.706833
7.5922437 -2.7034764 -0.70508993
7.5644894 -2.7218926 -0.70334679
7.5285339 -2.7625043 -0.70160371
7.4637694 -2.7653759 -0.69637436
7.5110283 -2.8097525 -0.70160371
7.474205 -2.8227761 -0.69898897
7.4466839 -2.8391454 -0.6972459
7.4098363 -2.8517914 -0.69463122
7.4013419 -2.8737643 -0.69463122
7.3737273 -2.8897321 -0.69288814
7.3641038 -2.9141684 -0.69288814
7.3364096 -2.9298995 -0.691145
7.3271689 -2.9529331 -0.691145
7.3086276 -2.9721847 -0.6902734
7.2900381 -2.991349 -0.68940187
7.2529912 -3.0028043 -0.68678719
7.2343297 -3.0217361 -0.68591565
7.215621 -3.0405796 -0.68504411
7.1968651 -3.0593362 -0.68417257
7.1689072 -3.0740786 -0.68242943
7.159214 -3.0965853 -0.68242943
7.1311889 -3.1110945 -0.68068635
7.1122618 -3.1294701 -0.67981476
7.0932894 -3.1477578 -0.67894322
7.0742726 -3.165957 -0.67807162
7.0642915 -3.1881654 -0.67807162
7.0361066 -3.2020903 -0.67632854
7.0169582 -3.2200241 -0.675457
7.0068073 -3.2420528 -0.675457
6.9785318 -3.255626 -0.67371386
6.9592552 -3.2732935 -0.67284232
6.9399362 -3.2908723 -0.67197078
6.9205756 -3.3083615 -0.67109919
6.8921995 -3.3214371 -0.66935605
6.881731 -3.3430734 -0.66935605
6.8622475 -3.3602953 -0.66848451
6.8427238 -3.3774281 -0.66761297
6.8231602 -3.3944712 -0.66674137
6.8035574 -3.4114249 -0.66586983
6.7928071 -3.4327817 -0.66586983
6.7731118 -3.4495838 -0.66499829
6.7533789 -3.4662962 -0.66412675
6.7329993 -3.4840939 -0.66325516
6.7131872 -3.500623 -0.66238362
6.6845193 -3.5124283 -0.66064048
6.6734519 -3.5334108 -0.66064048
6.6447396 -3.5449805 -0.6588974
6.6335702 -3.5658381 -0.6588974
6.613575 -3.5819161 -0.6580258
6.593545 -3.5979037 -0.65715426
6.5734797 -3.6138008 -0.65628272
6.5533795 -3.6296079 -0.65541118
6.5332451 -3.6453238 -0.65453959
6.5217605 -3.6658306 -0.65453959
6.501543 -3.6813929 -0.65366805
6.4899459 -3.7017999 -0.65366805
6.4696465 -3.717207 -0.65279645
6.4493146 -3.7325239 -0.65192497
6.4289503 -3.7477493 -0.65105337
6.4171448 -3.7679279 -0.65105337
6.3881264 -3.7779272 -0.64931023
6.3762259 -3.7979777 -0.64931023
6.3557205 -3.8128657 -0.64843869
6.3437109 -3.832814 -0.64843869
6.3231277 -3.8475459 -0.64756715
6.2940216 -3.856981 -0.64582402
6.2733955 -3.8715034 -0.64495242
6.2696629 -3.8964515 -0.64582402
6.2405019 -3.9055591 -0.64408094
6.2282019 -3.9251449 -0.64408094
6.2158394 -3.9446921 -0.64408094
6.1782331 -3.948107 -0.6414662
6.1734834 -3.9739654 -0.6423378
6.1609688 -3.9933403 -0.6423378
6.1233654 -3.9963417 -0.63972312
6.1107802 -4.0155592 -0.63972312
6.098135 -4.0347366 -0.63972312
6.0854292 -4.053875 -0.63972312
6.0726633 -4.0729728 -0.63972312
6.0680943 -4.0976057 -0.64059466
6.0387144 -4.1054468 -0.63885158
6.0257869 -4.1243978 -0.63885158
6.0045972 -4.1376553 -0.63797998
5.9833837 -4.1508212 -0.63710845
5.9703135 -4.1695976 -0.63710845
5.9408865 -4.1768742 -0.63536537
5.9107423 -4.1850386 -0.63362223
5.8975654 -4.2035875 -0.63362223
5.876236 -4.2162867 -0.63275063
5.8548856 -4.2288938 -0.63187909
5.8423128 -4.2462468 -0.63187909
5.8209038 -4.2586975 -0.63100755
5.6381865 -4.433629 -0.62752134
5.6164184 -4.445138 -0.6266498
5.610218 -4.468967 -0.62752134
5.5883784 -4.4803391 -0.6266498
5.5742755 -4.4978733 -0.6266498
5.5678506 -4.5216432 -0.62752134
5.5459046 -4.5328083 -0.6266498
5.5316367 -4.550209 -0.6266498
5.5173149 -4.567565 -0.6266498
5.5029383 -4.5848751 -0.6266498
5.4808736 -4.5957398 -0.6257782
5.4740224 -4.6193604 -0.6266498
5.4510818 -4.6310372 -0.6257782
5.4365058 -4.64814 -0.6257782
5.4218764 -4.6651959 -0.6257782
5.4071937 -4.6822062 -0.6257782
5.3849473 -4.6926255 -0.62490666
5.3701782 -4.7095203 -0.62490666
5.347887 -4.7197757 -0.62403506
5.3404818 -4.7431684 -0.62490666
5.3181267 -4.753284 -0.62403506
5.3031673 -4.769968 -0.62403506
5.288156 -4.7866044 -0.62403506
5.2730923 -4.8031945 -0.62403506
5.2506328 -4.813005 -0.62316352
5.2354865 -4.8294764 -0.62316352
5.2202888 -4.8459001 -0.62316352
5.1977596 -4.8554759 -0.62229198
5.1824799 -4.8717813 -0.62229198
5.1743855 -4.8948846 -0.62316352
5.1517673 -4.9042478 -0.62229198
5.1363349 -4.9204082 -0.62229198
5.1208515 -4.9365201 -0.62229198
5.1053181 -4.9525833 -0.62229198
5.0826054 -4.9616385 -0.62142038
5.0598865 -4.9706006 -0.62054884
5.0513301 -4.9934754 -0.62142038
5.0285554 -5.0022945 -0.62054884
5.0128155 -5.0180674 -0.62054884
4.9970255 -5.0337911 -0.62054884
4.9803057 -5.0503335 -0.62054884
4.9783602 -5.0801854 -0.62229198
4.9563136 -5.0877981 -0.62142038
4.8943753 -5.1198816 -0.61967731
4.8851275 -5.1424551 -0.62054884
4.8621097 -5.1505322 -0.61967731
4.8527203 -5.1730475 -0.62054884
4.8228593 -5.1736937 -0.61880577
4.8201213 -5.2034359 -0.62054884
4.7970037 -5.2112231 -0.61967731
4.7806087 -5.2262678 -0.61967731
4.7641664 -5.241261 -0.61967731
4.7476768 -5.2562022 -0.61967731
4.7244864 -5.2636781 -0.61880577
4.721189 -5.2933631 -0.62054884
4.697928 -5.300714 -0.61967731
4.6812525 -5.3154464 -0.61967731
4.6645308 -5.3301268 -0.61967731
4.6477623 -5.3447547 -0.61967731
4.6309485 -5.3593292 -0.61967731
4.6196389 -5.3822165 -0.62054884
4.5962434 -5.3891225 -0.61967731
4.5783467 -5.404335 -0.61967731
4.5613461 -5.4186916 -0.61967731
4.551641 -5.4398422 -0.62054884
4.5345292 -5.4541144 -0.62054884
4.4728689 -5.5176239 -0.62142038
4.4545474 -5.5324259 -0.62142038
4.3609738 -5.5938563 -0.62054884
4.3616791 -5.631156 -0.62316352
4.3378916 -5.6369357 -0.62229198
4.3262115 -5.6584501 -0.62316352
4.3204656 -5.6878791 -0.62490666
4.2905731 -5.6855206 -0.62316352
4.2369137 -5.6883984 -0.62054884
4.2605014 -5.7577372 -0.6266498
4.2246909 -5.7470136 -0.62403506
4.2124901 -5.7683029 -0.62490666
4.2060475 -5.7976351 -0.6266498
4.1936374 -5.818902 -0.62752134
4.186934 -5.848248 -0.62926441
13.558148 2.7338054 -0.72485298
13.586732 2.692709 -0.72589976
11.967785 1.2557497 -0.63064831
11.912061 1.2120824 -0.6275081
11.876057 1.1707371 -0.62541467
11.820226 1.1256646 -0.62227452
11.773983 1.0839496 -0.61965775
11.727595 1.0425305 -0.61704093
11.700962 1.0031309 -0.61547083
11.654126 0.96428829 -0.61285406
11.57746 0.92133009 -0.60866719
11.480877 0.8753432 -0.60343355
11.50349 0.84072322 -0.60448033
11.446302 0.80040783 -0.60134012
11.428832 0.7631104 -0.6002934
11.371377 0.72339469 -0.59715325
11.33372 0.68525833 -0.59505981
11.285968 0.64679432 -0.59244305
11.248057 0.60917187 -0.59034961
11.190075 0.57078189 -0.5872094
11.151914 0.53371173 -0.58511597
11.11363 0.49689236 -0.58302253
11.065248 0.4599041 -0.58040577
11.036701 0.42398611 -0.57883567
10.988079 0.38755336 -0.5762189
10.949317 0.35174569 -0.57412541
10.900458 0.31590137 -0.57150865
10.861465 0.28062543 -0.56941521
10.822358 0.24559245 -0.56732178
10.773154 0.2106179 -0.56470495
10.743808 0.17627749 -0.56313491
10.714352 0.14212866 -0.5615648
10.684789 0.10816664 -0.55999476
10.635145 0.074247256 -0.55737793
10.605368 0.040722635 -0.55580789
10.565497 0.0073738182 -0.55371445
10.53551 -0.02574316 -0.55214435
10.485447 -0.058562391 -0.54952759
10.455253 -0.091241606 -0.54795742
10.424957 -0.1237317 -0.54638737
10.374592 -0.15573257 -0.54377055
10.324128 -0.18741821 -0.54115379
10.283553 -0.21900095 -0.53906035
10.262847 -0.25081858 -0.53801364
10.242043 -0.28250828 -0.53696692
10.211105 -0.3155452 -0.53539681
10.160161 -0.34592369 -0.53277999
10.139 -0.37886828 -0.53173333
10.107825 -0.40950623 -0.53016323
10.076634 -0.43819335 -0.52859312
9.9008322 -0.55527586 -0.519696
9.4170074 -1.0646087 -0.49666822
9.2762518 -1.2278306 -0.49038792
9.1338072 -1.2381859 -0.48306087
9.1597691 -1.2693936 -0.48463097
9.1458483 -1.2967616 -0.48410761
8.9280777 -1.5261042 -0.47468713
8.8396511 -1.5682153 -0.47050026
8.7903366 -1.6165006 -0.46840683
8.765583 -1.6404343 -0.46736008
8.7404757 -1.665754 -0.46631336
8.7057877 -1.6875037 -0.46474332
8.6808481 -1.7109829 -0.46369657
8.6558466 -1.7343224 -0.46264988
8.6408768 -1.7580063 -0.46212649
8.6059732 -1.7790786 -0.46055645
8.6003418 -1.8061063 -0.46055645
8.5555582 -1.8247838 -0.45846301
8.5400229 -1.8495388 -0.45793962
8.5049105 -1.869926 -0.45636958
8.4697542 -1.8901104 -0.45479944
8.4540348 -1.9145039 -0.45427608
8.4285135 -1.9365809 -0.4532294
8.4126616 -1.9607836 -0.45270601
8.3870239 -1.9826086 -0.45165932
8.361331 -2.0042915 -0.45061257
8.3452892 -2.0281909 -0.45008922
8.3097878 -2.0472319 -0.44851914
8.2936258 -2.0709085 -0.44799578
8.2580357 -2.0896041 -0.44642571
8.2413874 -2.1144955 -0.44590235
8.215374 -2.1353519 -0.44485563
8.1989679 -2.1586082 -0.44433227
8.1728477 -2.1792097 -0.44328558
8.1567049 -2.2008479 -0.4427622
8.1208496 -2.2185667 -0.44119209
8.0941992 -2.2401567 -0.4401454
8.0678892 -2.2601864 -0.43909866
8.0511417 -2.2827973 -0.43857533
8.0247326 -2.3025708 -0.43752858
7.9982791 -2.3222013 -0.43648189
7.9813623 -2.3445024 -0.43595853
7.964385 -2.3667202 -0.43543515
7.9377837 -2.3859804 -0.43438846
7.911139 -2.4050961 -0.43334171
7.8844543 -2.4240687 -0.43229502
7.8672633 -2.4458616 -0.43177167
7.840487 -2.4645758 -0.43072492
7.8231888 -2.486171 -0.43020159
7.7963238 -2.5046268 -0.42915484
7.7789187 -2.5260229 -0.42863148
7.761456 -2.5473347 -0.4281081
7.7344584 -2.5654175 -0.42706141
7.7168922 -2.5865295 -0.42653805
7.6898117 -2.6043537 -0.42549133
7.672143 -2.6252658 -0.42496797
7.6449809 -2.6428299 -0.42392123
7.627213 -2.663542 -0.4233979
7.5999722 -2.6808462 -0.42235115
7.5073347 -2.7028067 -0.41816428
7.5183272 -2.7602479 -0.41973436
7.5002556 -2.7803829 -0.41921103
7.4727783 -2.7969308 -0.41816428
7.4546132 -2.8168635 -0.41764095
7.4270658 -2.8331504 -0.41659424
7.4181285 -2.8564694 -0.41659424
7.3816948 -2.8676181 -0.41502413
7.3726497 -2.8907943 -0.41502413
7.3537374 -2.9115508 -0.41450077
7.3352814 -2.9309335 -0.41397741
7.3075137 -2.9464946 -0.4129307
7.2889709 -2.9656734 -0.41240734
7.27038 -2.9847653 -0.41188398
7.2517409 -3.0037694 -0.41136062
7.2330546 -3.0226862 -0.41083726
7.2143207 -3.0415151 -0.4103139
7.1863503 -3.0563476 -0.40926719
7.1675363 -3.0749717 -0.40874383
7.1486754 -3.093508 -0.40822047
7.1297693 -3.1119561 -0.40769711
7.1108174 -3.130316 -0.40717372
7.0918212 -3.1485879 -0.40665039
7.0636659 -3.1626902 -0.40560368
7.0536952 -3.1848657 -0.40560368
7.0345659 -3.2028716 -0.40508029
7.0153942 -3.2207887 -0.40455696
6.9961786 -3.2386172 -0.40403357
6.9769206 -3.2563567 -0.40351024
6.9576197 -3.2740073 -0.40298685
6.929255 -3.2872887 -0.40194014
6.9188933 -3.3090413 -0.40194014
6.8994679 -3.3264244 -0.40141678
6.8710203 -3.3393526 -0.40037006
6.8515282 -3.3565288 -0.3998467
6.831995 -3.3736153 -0.39932334
6.821363 -3.395062 -0.39932334
6.8017373 -3.4119976 -0.39879999
6.7731605 -3.4243379 -0.39775327
6.7712669 -3.4501328 -0.39827663
6.7426276 -3.4622648 -0.39722991
6.7311091 -3.4846056 -0.39722991
6.7112751 -3.5011156 -0.39670655
6.6825643 -3.5128891 -0.39565983
6.671495 -3.5338657 -0.39565983
6.6515498 -3.5501051 -0.39513648
6.6315689 -3.5662546 -0.39461312
6.6115522 -3.5823131 -0.39408976
6.5827346 -3.5934963 -0.39304304
6.5801635 -3.6189713 -0.3935664
6.5600266 -3.6347854 -0.39304304
6.5398555 -3.6505091 -0.39251968
6.5109458 -3.6612473 -0.39147297
6.4994116 -3.6816838 -0.39147297
6.487813 -3.7020843 -0.39147297
6.4674926 -3.7174714 -0.39094961
6.4471397 -3.7327676 -0.39042625
6.4267545 -3.7479725 -0.38990289
6.4063377 -3.7630863 -0.38937953
6.3944845 -3.7831938 -0.38937953
6.3739886 -3.7981522 -0.38885614
6.3620248 -3.8181579 -0.38885614
6.3414516 -3.8329599 -0.38833278
6.3208485 -3.847671 -0.38780943
6.3002162 -3.8622899 -0.38728607
6.2795539 -3.8768175 -0.38676271
6.2758241 -3.901799 -0.38728607
6.2466068 -3.910897 -0.38623935
6.2342896 -3.9305019 -0.38623935
6.2134805 -3.9447157 -0.38571599
6.1926427 -3.9588377 -0.38519263
6.1710849 -3.9739449 -0.38466927
6.1501908 -3.987879 -0.38414592
6.1376319 -4.0071812 -0.38414592
6.1166687 -4.020957 -0.38362256
6.1040063 -4.0401535 -0.38362256
6.0829735 -4.053772 -0.3830992
6.0785007 -4.0784264 -0.38362256
6.049108 -4.0863223 -0.38257584
6.0362406 -4.1053061 -0.38257584
6.0150733 -4.118607 -0.38205248
6.0021052 -4.1374831 -0.38205248
5.9890771 -4.1563191 -0.38205248
5.9596176 -4.1636753 -0.38100576
5.9465075 -4.1823773 -0.38100576
5.9326057 -4.2020736 -0.38100576
5.9112444 -4.2148933 -0.38048241
5.8979735 -4.2334433 -0.38048241
5.8684559 -4.2402539 -0.37943569
5.8639259 -4.2635198 -0.37995905
5.8424444 -4.2760229 -0.37943569
5.8282328 -4.2953734 -0.37943569
5.8066888 -4.3077126 -0.37891233
5.7923722 -4.3269444 -0.37891233
5.7707686 -4.3391185 -0.37838897
5.7499046 -4.3501964 -0.37786561
5.7362099 -4.3682389 -0.37786561
5.7145324 -4.3801632 -0.37734225
5.7007437 -4.3980942 -0.37734225
5.6868987 -4.4159818 -0.37734225
5.6651292 -4.4276762 -0.3768189
5.6433425 -4.4392776 -0.37629554
5.6293683 -4.456985 -0.37629554
5.6153383 -4.4746485 -0.37629554
5.601253 -4.4922671 -0.37629554
5.5793419 -4.5035691 -0.37577218
5.565166 -4.5210752 -0.37577218
5.5432043 -4.5322151 -0.37524882
5.5366492 -4.5559525 -0.37577218
5.5146184 -4.5669546 -0.37524882
5.5002437 -4.5842566 -0.37524882
5.4781632 -4.5950956 -0.37472546
5.4713316 -4.6187248 -0.37524882
5.4483752 -4.6303763 -0.37472546
5.4338021 -4.6474695 -0.37472546
5.4116058 -4.6580029 -0.37420207
5.3969455 -4.6749806 -0.37420207
5.3822322 -4.6919127 -0.37420207
5.3674655 -4.7087984 -0.37420207
5.3451595 -4.7190285 -0.37367874
5.330308 -4.7357974 -0.37367874
5.3154039 -4.7525196 -0.37367874
5.3078709 -4.7758741 -0.37420207
5.2780356 -4.77912 -0.37315536
5.2703772 -4.8024044 -0.37367874
5.2479033 -4.8121886 -0.37315536
5.240099 -4.8354239 -0.37367874
5.2102466 -4.8382716 -0.37263203
5.2023172 -4.8614345 -0.37315536
5.1797442 -4.870913 -0.37263203
5.1716695 -4.8940253 -0.37315536
5.1418052 -4.8964753 -0.37210864
5.1336074 -4.9195137 -0.37263203
5.1181273 -4.9356174 -0.37263203
5.1097627 -4.9586267 -0.37315536
5.0798697 -4.9607005 -0.37210864
5.0713835 -4.9836345 -0.37263203
5.0486012 -4.9925203 -0.37210864
5.0399704 -5.0154004 -0.37263203
5.0171323 -5.0241427 -0.37210864
5.0083585 -5.0469685 -0.37263203
4.9845834 -5.0564375 -0.37210864
4.9756622 -5.0792055 -0.37263203
4.9466362 -5.0796375 -0.37158531
4.9445424 -5.1095052 -0.37263203
4.852531 -5.1421828 -0.37053856
4.8065095 -5.157959 -0.36949185
4.7970662 -5.1803608 -0.3700152
4.7875309 -5.202754 -0.37053856
4.7779007 -5.2251387 -0.37106192
4.7480307 -5.2253413 -0.3700152
4.7315917 -5.2402315 -0.3700152
4.708436 -5.2476382 -0.36949185
4.6819935 -5.2845926 -0.3700152
4.6587701 -5.29178 -0.36949185
4.6421223 -5.3063903 -0.36949185
4.6254292 -5.3209472 -0.36949185
4.6086903 -5.3354521 -0.36949185
4.5909715 -5.3507061 -0.36949185
4.5935764 -5.3878999 -0.37106192
4.5563231 -5.3802414 -0.36949185
4.5458274 -5.4021697 -0.3700152
4.5297785 -5.4156337 -0.3700152
4.5063601 -5.4221578 -0.36949185
4.490252 -5.4355044 -0.36949185
4.4794898 -5.457303 -0.3700152
4.4623237 -5.4713483 -0.3700152
4.463974 -5.5086169 -0.37158531
4.445683 -5.5233893 -0.37158531
4.434545 -5.5451274 -0.37210864
4.4108906 -5.5512133 -0.37158531
4.4058046 -5.5807195 -0.37263203
4.4067407 -5.6181049 -0.37420207
4.3583765 -5.5925379 -0.37158531
4.346899 -5.6140981 -0.37210864
4.33533 -5.6356416 -0.37263203
4.3115392 -5.6412992 -0.37210864
4.2937956 -5.6548166 -0.37210864
4.2699947 -5.6603065 -0.37158531
4.2582016 -5.7190628 -0.37367874
13.527808 2.7670202 -0.24101773
13.556039 2.7284498 -0.24136677
11.748709 1.0795549 -0.2059384
11.625752 0.99463928 -0.20366958
11.618855 0.95728666 -0.20349506
11.552034 0.91524917 -0.2022734
11.505004 0.87516326 -0.20140077
11.447865 0.83465481 -0.20035362
11.400698 0.79321462 -0.199481
11.363227 0.75474602 -0.19878289
11.325628 0.7165153 -0.1980848
11.287902 0.67853373 -0.19738671
11.240066 0.64022762 -0.19651408
11.21207 0.60329795 -0.19599052
11.163981 0.56554413 -0.19511789
11.115767 0.52809316 -0.19424528
11.077417 0.49139908 -0.19354719
11.028956 0.45453948 -0.19267456
10.990365 0.41836432 -0.19197647
10.961647 0.3827903 -0.19145289
10.922822 0.34707808 -0.19075479
10.873887 0.3113327 -0.18988219
10.83483 0.27615297 -0.18918408
10.785665 0.24099317 -0.18831146
10.766375 0.20672601 -0.18796241
10.716985 0.1720957 -0.18708979
10.677482 0.13791201 -0.18639168
10.637871 0.10397822 -0.18569359
10.60815 0.070355907 -0.18517002
10.578324 0.036926433 -0.18464646
10.528396 0.003673041 -0.18377383
10.49836 -0.029317027 -0.18325026
10.468221 -0.062120397 -0.18272668
10.43798 -0.094734691 -0.18220311
10.397639 -0.12703745 -0.18150502
10.3572 -0.15908769 -0.18080692
10.336657 -0.19125502 -0.18045789
10.286023 -0.22264573 -0.17958526
10.255287 -0.25421575 -0.1790617
10.224454 -0.28559485 -0.17853811
10.193525 -0.31678274 -0.17801455
10.162502 -0.34777912 -0.17749098
10.121327 -0.37997693 -0.17679287
10.080123 -0.41014612 -0.17609479
10.058883 -0.43918031 -0.17574573
10.027492 -0.4693765 -0.17522216
10.005995 -0.49987864 -0.1748731
9.9444695 -0.5281294 -0.17382596
9.5104494 -0.95765197 -0.16684499
9.4346533 -1.009939 -0.16562334
9.4413729 -1.0406694 -0.16579786
9.3784475 -1.063565 -0.16475071
9.3452663 -1.0895495 -0.16422714
9.3219423 -1.1165249 -0.16387808
9.2985411 -1.1433648 -0.16352904
9.2651443 -1.168817 -0.16300547
9.231678 -1.1940708 -0.16248189
9.2080584 -1.2204396 -0.16213286
9.1744566 -1.245327 -0.16160929
9.150691 -1.2713913 -0.16126023
9.1268549 -1.2973186 -0.16091119
9.09305 -1.3216704 -0.16038761
9.0690737 -1.3472922 -0.16003856
9.0546703 -1.3758568 -0.15986404
9.0107822 -1.3981638 -0.15916595
8.9964705 -1.4249009 -0.15899141
8.9524679 -1.4467765 -0.15829332
8.9281483 -1.4716421 -0.15794428
8.90376 -1.4963692 -0.15759522
8.8891602 -1.5226457 -0.15742069
8.7959833 -1.590573 -0.1560245
8.687541 -1.6273986 -0.15427928
8.7312031 -1.6655661 -0.15515189
8.6964817 -1.6872747 -0.15462831
8.6813278 -1.7126517 -0.15445378
8.6562986 -1.7359846 -0.15410474
8.6214113 -1.7571802 -0.15358117
8.5962667 -1.7802012 -0.15323213
8.5808468 -1.80514 -0.15305759
8.5458002 -1.8258215 -0.15253402
8.5204802 -1.8484205 -0.15218499
8.4951019 -1.8708782 -0.15183593
8.4794245 -1.895376 -0.1516614
8.453927 -1.9175822 -0.15131237
8.4283733 -1.9396465 -0.15096331
8.3930283 -1.9592966 -0.15043974
8.3771019 -1.9833508 -0.15026522
8.2706709 -2.0406575 -0.1486945
8.2448206 -2.0617795 -0.14834546
8.1801491 -2.0729346 -0.14729831
8.2220182 -2.1110554 -0.14817092
8.1959934 -2.1318417 -0.14782189
8.0917902 -2.2121453 -0.14642568
8.0844097 -2.2389665 -0.14642568
8.0773354 -2.2643533 -0.14642568
8.0317068 -2.2788012 -0.14572759
8.0245085 -2.3040226 -0.14572759
7.9880214 -2.3222466 -0.14520402
7.9349394 -2.360985 -0.14450592
7.9370575 -2.388783 -0.14468044
7.891253 -2.40206 -0.14398235
7.8645554 -2.4209559 -0.14363329
7.8378181 -2.4397078 -0.14328426
7.8396525 -2.4673207 -0.14345878
7.8128066 -2.4858742 -0.14310972
7.7954397 -2.5073452 -0.1429352
7.7780156 -2.5287313 -0.14276068
7.7320375 -2.5406692 -0.14206257
7.7064433 -2.5860202 -0.14188807
7.6604052 -2.5973754 -0.14118996
7.6427484 -2.6181881 -0.14101544
7.6155877 -2.6356452 -0.14066638
7.6072702 -2.6595571 -0.14066638
7.5611658 -2.6701257 -0.13996829
7.5809932 -2.7039437 -0.14049187
7.553647 -2.7209697 -0.14014281
7.535665 -2.7412684 -0.13996829
7.4253144 -2.8087549 -0.13857211
7.2785378 -2.8832467 -0.13665234
7.3344321 -2.9320791 -0.13787401
7.3061256 -2.9489 -0.13752496
7.2783055 -2.9642956 -0.1371759
7.2597089 -2.983346 -0.1370014
7.2410645 -3.0023091 -0.13682686
7.1756492 -3.0547545 -0.13612877
7.1384554 -3.0654469 -0.1356052
7.1104403 -3.0799096 -0.13525614
7.1007295 -3.1022325 -0.13525614
7.1000981 -3.1285563 -0.13543066
7.0902343 -3.1508462 -0.13543066
7.0620522 -3.1649272 -0.13508162
7.0338521 -3.1788623 -0.13473257
7.0147328 -3.1967978 -0.13455805
6.9299397 -3.237376 -0.1335109
6.9287806 -3.2633915 -0.13368542
6.9004307 -3.2765651 -0.13333638
6.8991208 -3.3025444 -0.1335109
6.8616972 -3.3111663 -0.13298734
6.8512611 -3.3327065 -0.13298734
6.83178 -3.349812 -0.13281281
6.7853684 -3.353538 -0.13211471
6.8195472 -3.3971293 -0.13298734
6.7999058 -3.4140501 -0.13281281
6.7802253 -3.4308815 -0.13263829
6.7605062 -3.447623 -0.13246375
6.7407494 -3.4642746 -0.13228925
6.7099853 -3.5019333 -0.13211471
6.6629419 -3.5055432 -0.13141662
6.6430621 -3.5217752 -0.1312421
6.6231461 -3.5379164 -0.13106757
6.611999 -3.5587058 -0.13106757
6.5832076 -3.5699282 -0.13071851
6.57196 -3.5905924 -0.13071851
6.5694065 -3.6160424 -0.13089305
6.5492702 -3.631814 -0.13071851
6.537828 -3.6523714 -0.13071851
6.4973545 -3.6835151 -0.13036947
6.4510207 -3.6840754 -0.12967138
6.4394155 -3.7043235 -0.12967138
6.4160132 -3.7447104 -0.12967138
6.3783588 -3.7496471 -0.1291478
6.3407373 -3.7543843 -0.12862423
6.3632612 -3.7947702 -0.12932234
6.3513083 -3.8147423 -0.12932234
6.3307371 -3.8295014 -0.1291478
6.2980285 -3.8639746 -0.12897328
6.268847 -3.8732305 -0.12862423
6.2566481 -3.8929052 -0.12862423
6.2189684 -3.896616 -0.12810066
6.2405205 -3.937475 -0.12879875
6.2196808 -3.9516988 -0.12862423
6.198813 -3.9658308 -0.12844971
6.1520104 -3.9647 -0.1277516
6.1646867 -4.0003352 -0.12827519
6.1437182 -4.0142136 -0.12810066
6.1227241 -4.0279999 -0.12792614
6.0512867 -4.063231 -0.12722804
6.0219254 -4.0710216 -0.12687899
6.0091062 -4.0899196 -0.12687899
5.9962277 -4.108778 -0.12687899
5.9668298 -4.11624 -0.12652995
5.9785051 -4.1520753 -0.12705351
5.9654317 -4.1708369 -0.12705351
5.9441228 -4.1838026 -0.12687899
5.922792 -4.1966748 -0.12670447
5.9095783 -4.2152615 -0.12670447
5.888185 -4.2279744 -0.12652995
5.8748736 -4.2464519 -0.12652995
5.8615036 -4.2648873 -0.12652995
5.8400097 -4.2773724 -0.12635542
5.8184958 -4.2897654 -0.1261809
5.8130193 -4.3139815 -0.12635542
5.7906723 -4.32725 -0.1261809
5.7770495 -4.3454199 -0.1261809
5.747427 -4.3514771 -0.12583186
5.7416801 -4.3755722 -0.12600636
5.7199721 -4.3875031 -0.12583186
5.7061605 -4.4054513 -0.12583186
5.6843967 -4.4172211 -0.12565732
5.6704917 -4.4350572 -0.12565732
5.6565304 -4.4528494 -0.12565732
5.6346769 -4.4643888 -0.1254828
5.6206241 -4.4820685 -0.1254828
5.5987177 -4.4934459 -0.12530828
5.5845737 -4.5110126 -0.12530828
5.5858903 -4.5411491 -0.12565732
5.5483818 -4.539681 -0.12513375
5.5263739 -4.5507336 -0.12495922
5.5043516 -4.5616922 -0.1247847
5.4899936 -4.5789623 -0.1247847
5.4679232 -4.5897589 -0.12461018
5.4534769 -4.606914 -0.12461018
5.4389772 -4.6240239 -0.12461018
5.4244237 -4.641088 -0.12461018
5.4014277 -4.6525249 -0.12443565
5.3943396 -4.6760206 -0.12461018
5.3645539 -4.6797991 -0.12426113
5.3648534 -4.7098217 -0.12461018
5.3425374 -4.7200327 -0.12443565
5.3276825 -4.736793 -0.12443565
5.3053241 -4.7468405 -0.12426113
5.2978153 -4.7701745 -0.12443565
5.275394 -4.7800808 -0.12426113
5.2677393 -4.8033671 -0.12443565
5.2452559 -4.8131328 -0.12426113
5.2301097 -4.829587 -0.12426113
5.2295599 -4.8596063 -0.12461018
5.1246514 -4.8835516 -0.12356304
5.1020675 -4.8927069 -0.12338851
5.0938663 -4.9156542 -0.12356304
5.0855708 -4.9385982 -0.12373756
5.0557289 -4.9405746 -0.12338851
5.0473118 -4.9634438 -0.12356304
5.0254545 -4.9713659 -0.12338851
5.0168982 -4.9941831 -0.12356304
5.001183 -5.0099196 -0.12356304
4.9713364 -5.0114102 -0.12321398
4.9827623 -5.056355 -0.12391208
4.9279361 -5.0959034 -0.12373756
4.8841915 -5.0825224 -0.12303946
4.8889155 -5.1195345 -0.12356304
4.872808 -5.1348681 -0.12356304
4.8635116 -5.1574254 -0.12373756
4.8404489 -5.1653833 -0.12356304
4.8241973 -5.1805649 -0.12356304
4.8078985 -5.1956949 -0.12356304
4.7915521 -5.2107735 -0.12356304
4.7856026 -5.2703853 -0.12426113
4.7623234 -5.2779708 -0.1240866
4.6346931 -5.4035707 -0.12426113
4.6176944 -5.4181046 -0.12426113
4.5997024 -5.4333873 -0.12426113
4.5761733 -5.4401593 -0.1240866
4.5664258 -5.4613838 -0.12426113
4.4893875 -5.4732556 -0.12356304
4.4658537 -5.4795823 -0.12338851
4.4549098 -5.5013552 -0.12356304
4.4313369 -5.5075331 -0.12338851
4.4202561 -5.5292377 -0.12356304
4.3956785 -5.5360346 -0.12338851
4.3782649 -5.5498171 -0.12338851
4.3669763 -5.5714135 -0.12356304
4.343308 -5.5772166 -0.12338851
4.3318839 -5.598742 -0.12356304
4.3142734 -5.6123238 -0.12356304
4.3026896 -5.6337953 -0.12373756
4.2728815 -5.6313543 -0.12338851
4.2551694 -5.6447501 -0.12338851
4.2371616 -5.7703071 -0.12495922
3.8421557 -6.0449362 0.6266498
3.7161019 -6.0999165 0.62490666
3.713459 -6.1364841 0.62752134
3.6736398 -6.1139636 0.62403506
13.526486 2.8381548 0.72432965
13.564676 2.8017023 0.72589976
9.0123405 -1.3806916 0.47782731
4.3143187 -5.6265955 0.37158531
13.542543 2.7946668 0.24136677
13.570852 2.7560902 0.24171582
11.746999 1.0980073 0.2059384
11.65081 1.052102 0.20419315
11.553302 0.89911956 0.2022734
11.506365 0.85708576 0.20140077
11.049561 0.43993616 0.19302361
10.923296 0.33182755 0.19075479
10.766653 0.1916889 0.18796241
10.508307 -0.044017348 0.1834248
10.336379 -0.20568752 0.18045789
10.234039 -0.30016372 0.17871264
10.026826 -0.48337707 0.17522216
9.9318876 -0.57440829 0.17365144
9.4264584 -0.99242419 0.1654488
9.3437719 -1.0134084 0.16405261
8.7689466 -1.5714631 0.15550093
7.6933503 -2.5935836 0.14171353
7.6851645 -2.6177404 0.14171353
7.6579938 -2.6353636 0.14136449
7.622417 -2.6768024 0.14101544
7.5951233 -2.6940503 0.14066638
7.5301466 -2.6976657 0.13961925
7.5318303 -2.7517877 0.13996829
7.4951653 -2.793385 0.13961925
7.4311633 -2.8495805 0.13892116
7.4133506 -2.8680091 0.13874663
7.3856769 -2.884011 0.13839757
7.3114653 -2.8815367 0.1371759
7.1805711 -3.0686998 0.13630329
7.1617131 -3.0872848 0.13612877
7.1428099 -3.105782 0.13595425
7.087234 -3.1081281 0.13508162
6.9616246 -3.2640269 0.13420901
6.9422965 -3.2816086 0.13403448
6.8958488 -3.2861972 0.13333638
6.3011422 -3.8780048 0.1291478
6.2141571 -3.9603796 0.12862423
6.1932697 -3.9744821 0.12844971
6.1590948 -4.0089393 0.12827519
6.104383 -4.0557423 0.12792614
6.0704861 -4.0884314 0.1277516
6.0364208 -4.1208553 0.1275771
6.0021873 -4.1530123 0.12740256
5.827827 -4.310791 0.12652995
5.7572713 -4.3715906 0.1261809
5.6721611 -4.449141 0.12583186
5.2837291 -4.7708664 0.12426113
5.2835145 -4.80089 0.12461018
5.2306967 -4.8436785 0.12443565
5.1001601 -4.9666214 0.12426113
5.0845318 -4.9826193 0.12426113
5.0474958 -4.9775066 0.12373756
5.0460277 -5.0074248 0.1240866
5.0169954 -5.0082469 0.12373756
5.0144658 -5.039031 0.1240866
4.9845495 -5.0405407 0.12373756
4.9518957 -5.0726242 0.12373756
4.9507489 -5.101645 0.1240866
4.9208164 -5.1027789 0.12373756
4.9116797 -5.1254315 0.12391208
4.8955531 -5.1408367 0.12391208
4.8563061 -5.1642113 0.12373756
4.8237624 -5.1946225 0.12373756
4.8074198 -5.2097507 0.12373756
4.791029 -5.2248282 0.12373756
4.774591 -5.2398539 0.12373756
4.7581062 -5.254827 0.12373756
4.7482619 -5.2771826 0.12391208
4.7150106 -5.3069124 0.12391208
4.6983156 -5.3216987 0.12391208
4.6815734 -5.3364325 0.12391208
4.6647859 -5.3511138 0.12391208
4.6479521 -5.3657417 0.12391208
4.631072 -5.3803177 0.12391208
4.613205 -5.3956451 0.12391208
4.589757 -5.4024916 0.12373756
4.5718169 -5.4176817 0.12373756
4.5547738 -5.4320183 0.12373756
4.5514398 -5.4608693 0.1240866
4.5352173 -5.4743495 0.1240866
4.5052876 -5.4731317 0.12373756
4.4944015 -5.4949975 0.12391208
4.4708104 -5.5013309 0.12373756
4.4472241 -5.5075703 0.12356304
4.4477019 -5.5456867 0.1240866
4.4302583 -5.5596323 0.1240866
4.3838215 -5.6090164 0.12426113
4.366178 -5.6227612 0.12426113
4.3423848 -5.6285338 0.1240866
4.3307633 -5.650084 0.12426113
4.2645311 -5.6000247 0.12286494
4.2770796 -5.6532626 0.12373756
