# .PCD v0.7 - Point Cloud Data file format
VERSION 0.7
FIELDS x y z
SIZE 4 4 4
TYPE F F F
COUNT 1 1 1
WIDTH 690
HEIGHT 1
VIEWPOINT 0 0 0 1 0 0 0
POINTS 690
DATA ascii
7.1769824 9.9804726 -1.0755018
7.2007213 9.9510641 -1.0746303
7.2260852 9.9203386 -1.0737587
7.2530484 9.8882904 -1.0728871
7.2722416 9.8494291 -1.071144
7.4986548 9.5771513 -1.0641716
7.5410352 9.5691957 -1.0659146
7.5648723 9.5376501 -1.0650431
7.588582 9.5060539 -1.0641716
7.6184115 9.4821644 -1.0641716
7.6418972 9.4504395 -1.0633
7.6652584 9.4186592 -1.0624285
7.6821885 9.379117 -1.0606854
7.7116141 9.3549376 -1.0606854
7.7346072 9.3229952 -1.0598137
7.7638564 9.2986517 -1.0598137
7.7866201 9.2665892 -1.0589422
7.8140831 9.2434435 -1.0589422
7.8366265 9.2112627 -1.0580707
7.8671269 9.1852264 -1.0580707
7.8894434 9.1529188 -1.0571991
7.9181576 9.128089 -1.0571991
7.9467978 9.1031666 -1.0571991
7.9687843 9.0706692 -1.0563276
7.9906368 9.0381317 -1.055456
8.012372 9.0055389 -1.0545844
8.0339775 8.9729033 -1.053713
8.0421238 8.9254141 -1.0510982
8.0701227 8.9001064 -1.0510982
8.0980415 8.874711 -1.0510982
8.1326227 8.8565626 -1.0519698
8.1536436 8.8236542 -1.0510982
8.1745434 8.7906981 -1.0502267
8.2021179 8.7649755 -1.0502267
8.2296114 8.7391663 -1.0502267
8.2570286 8.7132664 -1.0502267
8.2774839 8.6800756 -1.0493551
8.3047152 8.6540251 -1.0493551
8.3318596 8.6278944 -1.0493551
8.3519802 8.5945339 -1.0484835
8.3789415 8.5682507 -1.0484835
8.3988285 8.5347862 -1.047612
8.4256029 8.5083561 -1.047612
8.4467363 8.4733152 -1.0467404
8.4733124 8.4467382 -1.0467404
8.4983397 8.4215584 -1.0467404
8.5247536 8.3948202 -1.0467404
8.5510864 8.3679943 -1.0467404
8.5773315 8.3410912 -1.0467404
8.5891647 8.3002605 -1.0449973
8.6223869 8.2801332 -1.0458689
8.6483593 8.2530022 -1.0458689
8.6670141 8.2189388 -1.0449973
8.69279 8.1916714 -1.0449973
8.7184801 8.1643238 -1.0449973
8.7440882 8.1368904 -1.0449973
8.7696104 8.1093779 -1.0449973
8.7877064 8.0750484 -1.0441257
8.8203869 8.0541201 -1.0449973
8.8382664 8.0196781 -1.0441257
8.8708191 7.9985404 -1.0449973
8.8810663 7.9573345 -1.0432541
8.913456 7.9360251 -1.0441257
8.9308844 7.9013796 -1.0432541
8.9556618 7.8732853 -1.0432541
8.9803553 7.845109 -1.0432541
9.0200014 7.8299203 -1.0449973
9.0370102 7.7950392 -1.0441257
9.0690203 7.7730908 -1.0449973
9.0858097 7.7381039 -1.0441257
9.1100769 7.7095189 -1.0441257
9.126626 7.6744514 -1.0432541
9.1583347 7.6521306 -1.0441257
9.1759958 7.6153536 -1.0432541
9.2075624 7.592824 -1.0441257
9.2236633 7.557548 -1.0432541
9.2628107 7.5411148 -1.0449973
9.2787094 7.5057144 -1.0441257
9.31001 7.4827657 -1.0449973
9.3256893 7.4472613 -1.0441257
9.356843 7.4241209 -1.0449973
9.3722954 7.3885231 -1.0441257
9.4033022 7.3651876 -1.0449973
9.4263964 7.3356071 -1.0449973
9.4572783 7.312048 -1.0458689
9.4802017 7.2823029 -1.0458689
9.5030317 7.2524858 -1.0458689
9.5257673 7.2225971 -1.0458689
9.5404558 7.1866388 -1.0449973
9.7777681 6.8949013 -1.0467404
9.8075428 6.8698621 -1.047612
9.8372498 6.8447132 -1.0484835
9.8750963 6.8251004 -1.0502267
11.426412 5.04918 -1.0929329
11.433092 5.0092621 -1.0920614
11.449641 4.9713178 -1.0920614
11.492652 4.9471416 -1.094676
11.49812 4.9091058 -1.0938046
11.522658 4.8768439 -1.094676
11.537922 4.8406229 -1.094676
11.562272 4.8081732 -1.0955477
11.58653 4.7756243 -1.0964192
11.619921 4.7467318 -1.0981623
11.634775 4.7102056 -1.0981623
11.65876 4.6773419 -1.0990338
11.691914 4.6480489 -1.100777
11.715725 4.6149478 -1.1016484
11.748728 4.5853601 -1.1033916
11.772366 4.5520225 -1.1042632
11.786608 4.5150185 -1.1042632
11.837991 4.4921012 -1.1077495
11.852043 4.4548912 -1.1077495
11.875317 4.4211073 -1.108621
11.898494 4.3872266 -1.1094925
11.930933 4.3566613 -1.1112357
11.964053 4.3238411 -1.1129788
11.986957 4.2895927 -1.1138504
12.010506 4.2531466 -1.1147219
12.052011 4.2252779 -1.1173365
12.064494 4.1895022 -1.1173365
12.096439 4.1580534 -1.1190797
12.137014 4.1317778 -1.1216943
12.178255 4.1031723 -1.1243091
12.191796 4.0627618 -1.1243091
12.223421 4.0306821 -1.1260521
12.245494 3.9953473 -1.1269237
12.267466 3.9599199 -1.1277952
12.289334 3.9243939 -1.1286669
12.320601 3.8917639 -1.1304098
12.351785 3.8589826 -1.132153
12.392402 3.8289781 -1.1347677
12.413897 3.7929409 -1.1356393
12.435287 3.7568061 -1.1365108
12.466119 3.7234194 -1.1382539
12.487309 3.6870611 -1.1391255
12.517958 3.6533914 -1.1408687
12.538943 3.6168101 -1.1417402
12.569405 3.5828643 -1.1434833
12.599776 3.5487564 -1.1452264
12.62046 3.5118287 -1.1460979
12.67946 3.4853616 -1.1504557
12.671118 3.4402926 -1.1487126
12.729973 3.4133706 -1.1530704
12.759895 3.3784575 -1.1548135
12.799361 3.3459094 -1.1574283
12.829101 3.3106632 -1.1591712
12.926939 3.2494245 -1.1661438
12.898409 3.1992009 -1.1626576
7.1846061 9.9873962 -0.64477897
7.2083502 9.9579468 -0.64425564
7.2337203 9.9271803 -0.64373231
7.2606902 9.8950872 -0.64320892
7.2858057 9.8641968 -0.64268553
8.098114 8.927845 -0.63169497
8.1261196 8.9023609 -0.63169497
8.147294 8.8694315 -0.63117164
8.1751165 8.8437939 -0.63117164
8.1892586 8.803441 -0.63012493
8.2236986 8.7849627 -0.63064831
8.251255 8.7590857 -0.63064831
8.2649927 8.7186232 -0.62960154
8.2923412 8.6926165 -0.62960154
8.3196115 8.6665201 -0.62960154
8.3398561 8.6331596 -0.62907821
8.3669357 8.6069183 -0.62907821
8.3869524 8.5734491 -0.62855482
8.4138441 8.54706 -0.62855482
8.4406567 8.5205822 -0.62855482
8.461812 8.4854765 -0.62803149
8.4884272 8.4588528 -0.62803149
9.2635336 7.5390153 -0.62593806
9.2871704 7.5098777 -0.62593806
9.4579678 7.3099437 -0.62646139
9.5808678 7.164793 -0.62698478
9.7811174 6.9408031 -0.62855482
9.8245344 6.879209 -0.62855482
9.9004269 6.840054 -0.63064831
9.9795055 6.8484683 -0.6343118
9.9858255 6.8476796 -0.21134864
10.007287 6.8162761 -0.21134864
10.053494 6.8016133 -0.21187221
10.083111 6.7755747 -0.21204673
10.104348 6.7438612 -0.21204673
10.142155 6.7231302 -0.21239579
10.154874 6.6857386 -0.21222126
10.175826 6.6538048 -0.21222126
10.205067 6.6272464 -0.21239579
10.234238 6.6005745 -0.21257029
10.254925 6.568387 -0.21257029
10.275508 6.53614 -0.21257029
10.304443 6.5091681 -0.21274483
10.324843 6.4767609 -0.21274483
10.345139 6.4442945 -0.21274483
10.382341 6.4222794 -0.21309388
10.410984 6.3948655 -0.2132684
10.431022 6.3621287 -0.2132684
10.459512 6.3345041 -0.21344292
10.47936 6.3016152 -0.21344292
10.507691 6.2737851 -0.21361744
10.527349 6.2407451 -0.21361744
10.564134 6.2177868 -0.21396649
10.583617 6.1845651 -0.21396649
10.611642 6.1563044 -0.21414101
10.639596 6.127924 -0.21431555
10.667474 6.0994334 -0.21449007
10.686583 6.0658927 -0.21449007
10.723009 6.0421033 -0.21483912
10.741937 6.008388 -0.21483912
10.760761 5.9746089 -0.21483912
10.788234 5.9456015 -0.21501364
10.81563 5.9164805 -0.21518818
10.834166 5.8824701 -0.21518818
10.861393 5.8531499 -0.2153627
10.897362 5.8284268 -0.21571174
10.915618 5.7941651 -0.21571174
10.942612 5.7645063 -0.21588627
10.96953 5.7347298 -0.21606079
10.987492 5.700242 -0.21606079
11.023126 5.6748452 -0.21640983
11.049802 5.6447377 -0.21658435
11.076398 5.6145186 -0.21675889
11.093984 5.5796905 -0.21675889
11.12935 5.553741 -0.21710792
11.155702 5.5231881 -0.21728246
11.181974 5.4925194 -0.21745698
11.200126 5.4554105 -0.21745698
11.226213 5.4245439 -0.21763149
11.270247 5.4022169 -0.21815509
11.287162 5.366786 -0.21815509
11.322054 5.3398266 -0.21850412
11.338772 5.3042331 -0.21850412
11.373522 5.2769985 -0.21885318
11.399126 5.2454233 -0.2190277
11.424643 5.2137389 -0.21920222
11.450077 5.181941 -0.21937674
11.484543 5.1541338 -0.2197258
11.509814 5.1220903 -0.21990031
11.534995 5.0899448 -0.22007483
11.560088 5.0576916 -0.22024937
11.585094 5.0253248 -0.22042389
11.610009 4.9928565 -0.2205984
11.634836 4.9602761 -0.22077294
11.659571 4.9275942 -0.22094746
11.684215 4.8948059 -0.22112198
11.718004 4.8657398 -0.22147103
11.751724 4.8365159 -0.22182009
11.776119 4.8033452 -0.22199459
11.80969 4.7738228 -0.22234365
11.83391 4.740418 -0.22251818
11.858038 4.7069025 -0.2226927
11.891376 4.6769481 -0.22304174
11.915327 4.6431942 -0.22321628
11.939181 4.6093411 -0.22339079
11.962941 4.5753846 -0.22356531
11.986608 4.5413184 -0.22373985
12.019539 4.5106616 -0.22408889
12.043021 4.4763646 -0.22426341
12.075789 4.4454188 -0.22461247
12.108482 4.4143109 -0.2249615
12.141101 4.3830361 -0.22531056
12.154812 4.3448687 -0.22531056
12.188002 4.3112144 -0.22565961
12.210924 4.2762051 -0.22583413
12.24245 4.246511 -0.22618319
12.265187 4.2112727 -0.2263577
12.306759 4.1823683 -0.22688128
12.338788 4.1500678 -0.22723033
12.361253 4.1144381 -0.22740485
12.374117 4.0755858 -0.22740485
12.424887 4.0490799 -0.22810295
12.447062 4.0130968 -0.22827747
12.478658 3.980052 -0.22862652
12.491101 3.9408259 -0.22862652
12.532736 3.9083149 -0.2291501
12.564062 3.8748124 -0.22949913
12.5953 3.8411579 -0.22984819
12.616877 3.8044584 -0.2300227
12.657514 3.7733686 -0.23054628
12.678896 3.7364078 -0.2307208
12.70977 3.7021523 -0.23106986
12.730947 3.6649737 -0.23124439
12.76163 3.630434 -0.23159343
12.792225 3.595732 -0.23194247
12.83236 3.5635486 -0.23246604
12.862777 3.5285099 -0.2328151
12.883448 3.4906998 -0.23298961
12.923326 3.4579639 -0.23351319
12.943793 3.4198973 -0.23368771
12.954473 3.3792126 -0.23368771
12.984391 3.3434875 -0.23403676
13.023901 3.3100705 -0.23456034
13.053632 3.2740057 -0.23490939
13.092971 3.2401824 -0.23543295
13.394274 2.9155235 -0.23927249
13.461242 2.8416319 -0.2401451
13.621984 2.6527827 -0.2422394
13.687963 2.5739987 -0.24311201
13.715647 2.5346141 -0.24346106
13.753054 2.4968734 -0.24398462
13.780087 2.4595726 -0.24433368
13.807442 2.4197233 -0.24468273
13.844538 2.3814149 -0.2452063
13.881529 2.3428974 -0.24572988
13.908548 2.3025444 -0.24607892
13.945321 2.2636471 -0.24660251
13.9725 2.2205315 -0.24695154
14.009046 2.1812353 -0.24747512
14.035598 2.1402245 -0.24782416
14.081808 2.1020269 -0.24852227
14.108129 2.0606701 -0.2488713
14.144228 2.020576 -0.24939488
14.170309 1.9788991 -0.24974392
14.206178 1.9384234 -0.25026751
14.251841 1.8990691 -0.2509656
14.277565 1.8568679 -0.25131464
14.303167 1.8145171 -0.25166371
14.348489 1.7744849 -0.2523618
14.373846 1.7317868 -0.25271085
14.409006 1.6901188 -0.25323442
7.7727065 9.6397028 0.64896584
7.7714868 9.5764666 0.64634907
7.7952199 9.5442686 0.64582574
7.8188224 9.5120182 0.64530236
7.8614001 9.5027943 0.64634907
7.8848195 9.4703817 0.64582574
7.920949 9.4532156 0.64634907
7.9489651 9.4296703 0.64634907
7.9720883 9.3970375 0.64582574
7.9999375 9.3733406 0.64582574
8.0326014 9.3453636 0.64582574
8.2448244 9.1183271 0.64425564
8.2667074 9.0849962 0.64373231
8.295207 9.0589819 0.64373231
8.3236275 9.0328751 0.64373231
8.358757 9.0140009 0.64425564
8.3802195 8.9803972 0.64373231
8.3878803 8.932188 0.6421622
8.4159021 8.9057903 0.6421622
8.4438381 8.8793087 0.6421622
8.4785986 8.8599501 0.64268553
8.5063887 8.833272 0.64268553
8.5271463 8.7993345 0.6421622
8.5477781 8.7653503 0.64163882
8.5612831 8.7242002 0.6405921
8.6159296 8.6702356 0.6405921
8.6546268 8.5465479 0.63745195
8.7849903 8.5132494 0.64111549
8.8116941 8.4856062 0.64111549
8.8383074 8.4578838 0.64111549
8.8576002 8.4231911 0.6405921
8.8912754 8.4021835 0.64111549
8.9292908 8.3325253 0.64006871
8.9627447 8.311224 0.6405921
8.9888134 8.2830229 0.6405921
9.0074244 8.2480001 0.64006871
9.0590706 8.1912413 0.64006871
9.0847578 8.1627426 0.64006871
9.1029062 8.1275129 0.63954538
9.0910473 8.0657349 0.63692862
9.126523 7.9952936 0.63588184
9.2469101 7.9479818 0.63902205
9.2642384 7.9124084 0.63849866
9.2966661 7.8897243 0.63902205
9.3782845 7.808146 0.63954538
9.3887329 7.7642775 0.63849866
9.4207973 7.7410812 0.63902205
9.4528036 7.7177639 0.63954538
9.4692459 7.6817398 0.63902205
9.4777842 7.6394162 0.63797528
9.4627619 7.5783925 0.63535851
10.034534 6.9094472 0.63849866
10.094273 6.8574796 0.63954538
10.157152 6.8536692 0.6421622
10.186931 6.8272824 0.64268553
10.208328 6.7952476 0.64268553
10.229628 6.7631407 0.64268553
10.259173 6.7364488 0.64320892
10.280282 6.7041922 0.64320892
10.309676 6.6772885 0.64373231
10.330602 6.6448689 0.64373231
10.359843 6.617754 0.64425564
10.380581 6.5851769 0.64425564
10.418116 6.5631809 0.64530236
10.439825 6.5285945 0.64530236
10.459148 6.497592 0.64530236
10.48801 6.4699416 0.64582574
10.525314 6.4473953 0.6468724
10.536984 6.4091096 0.64634907
10.574165 6.3862977 0.64739579
10.594175 6.3530483 0.64739579
10.639825 6.3350582 0.64896584
10.642481 6.2914395 0.64791918
10.65358 6.2529211 0.64739579
10.690429 6.2294736 0.64844251
10.71859 6.2008605 0.64896584
10.738019 6.1671534 0.64896584
10.774691 6.1432834 0.65001261
10.802626 6.1143241 0.65053594
10.830489 6.0852451 0.65105927
10.849555 6.051187 0.65105927
10.877248 6.0219116 0.65158266
10.904863 5.9925218 0.65210605
10.923635 5.9582357 0.65210605
10.951082 5.9286394 0.65262938
10.978452 5.8989301 0.6531527
11.00574 5.8691125 0.65367609
11.032949 5.8391814 0.65419948
11.060079 5.8091369 0.65472281
11.087132 5.778975 0.65524614
11.122974 5.7532883 0.65629292
11.14099 5.7183232 0.65629292
11.177691 5.6904049 0.65733957
11.195512 5.6552634 0.65733957
11.213224 5.6200604 0.65733957
11.247735 5.5956583 0.65838635
11.275181 5.5627551 0.65890974
11.292603 5.5273023 0.65890974
11.327879 5.5005188 0.6599564
11.354099 5.4692402 0.66047978
11.371224 5.4335456 0.66047978
11.397262 5.4020743 0.66100317
11.432252 5.3747363 0.66204983
11.449082 5.3387914 0.66204983
11.483926 5.311183 0.66309661
11.509629 5.2792439 0.66361994
11.544337 5.2513318 0.66466665
11.56078 5.215035 0.66466665
11.595339 5.186842 0.66571337
11.620705 5.1544399 0.6662367
11.645981 5.1219296 0.66676009
11.662013 5.0853195 0.66676009
11.687981 5.0505772 0.66728348
11.712094 5.0198064 0.6678068
11.736998 4.9868946 0.66833013
11.771012 4.9577522 0.66937691
11.814175 4.932292 0.67094696
11.829613 4.8951492 0.67094696
11.863414 4.8655367 0.67199373
11.88789 4.832005 0.672517
11.912274 4.798368 0.67304039
11.936563 4.7646251 0.67356378
11.970047 4.7344441 0.67461044
11.994161 4.7004561 0.67513382
12.018177 4.6663694 0.67565721
12.042097 4.6321778 0.6761806
12.065923 4.5978756 0.67670387
12.08965 4.5634761 0.67722726
12.122637 4.532464 0.67827404
12.164907 4.5047688 0.67984408
12.188376 4.4699645 0.68036747
12.211746 4.4350567 0.6808908
12.245181 4.4012952 0.68193752
12.277765 4.3694968 0.68298423
12.301603 4.3320837 0.68350756
12.324584 4.2967 0.68403095
12.346719 4.2633691 0.68455434
12.368763 4.2299509 0.68507767
12.400908 4.1974778 0.68612438
12.432971 4.164845 0.6871711
12.465673 4.1298704 0.68821782
12.497567 4.0969062 0.6892646
12.519874 4.0607071 0.68978786
12.541374 4.026597 0.69031125
12.573696 3.9910254 0.69135803
12.605227 3.9574893 0.69240469
12.636673 3.9237883 0.69345146
12.668029 3.8899348 0.69449812
12.689742 3.8530219 0.69502151
12.720914 3.8188758 0.69606817
12.751996 3.7845781 0.69711494
12.782989 3.7501166 0.69816166
12.813889 3.7155037 0.69920838
12.835097 3.6779828 0.69973177
12.856198 3.6403592 0.7002551
12.896421 3.6080265 0.7018252
12.936569 3.5754704 0.70339525
12.967006 3.5400743 0.70444196
12.987703 3.5019219 0.70496529
13.008292 3.4636683 0.70548868
13.019109 3.4227872 0.70548868
13.108879 3.3146241 0.70862889
13.138606 3.2782564 0.70967555
13.197324 3.2489023 0.71229237
13.236579 3.2144918 0.71386242
13.256324 3.175221 0.71438581
13.285671 3.1381533 0.71543252
13.314917 3.1009259 0.71647924
13.353791 3.0657868 0.71804929
13.392578 3.0304277 0.71961939
13.411778 2.9905145 0.72014272
13.450368 2.9547963 0.72171283
13.469345 2.9146342 0.72223616
13.49797 2.8764701 0.72328293
13.592982 2.7630548 0.72694641
13.687512 2.6457143 0.73060995
13.74358 2.5645957 0.73270339
13.790419 2.5310133 0.73479682
13.827785 2.492995 0.73636693
13.855215 2.4530263 0.73741364
13.91916 2.3767469 0.74003041
14.01035 2.2541308 0.74369395
14.046956 2.2147667 0.74526405
7.6125603 9.6842699 0.21501364
7.6367455 9.652463 0.21483912
7.6670299 9.6284256 0.21483912
7.751132 9.5479774 0.21466461
7.774766 9.5158348 0.21449007
7.7919197 9.4759178 0.21414101
7.8471518 9.4822016 0.21483912
7.8640985 9.4421425 0.21449007
7.9001489 9.4250507 0.21466461
7.9280815 9.4015665 0.21466461
7.9511065 9.3689909 0.21449007
7.965888 9.3301477 0.21414101
7.9918828 9.2947092 0.21396649
8.0341311 9.2846756 0.21431555
8.0749846 9.1560535 0.21309388
8.0970707 9.1231632 0.21291935
8.2731447 9.0317154 0.21379198
8.3510742 8.9460344 0.21361744
8.4002504 8.8861198 0.21344292
8.5715628 8.6225786 0.21222126
8.5930347 8.5870409 0.21204673
8.5901041 8.5333185 0.21134864
8.6239843 8.5133162 0.21152316
8.6506891 8.4861784 0.21152316
9.0196304 8.1527185 0.21222126
9.0303192 8.1109819 0.21187221
9.0632143 8.0892315 0.21204673
9.0736246 8.0474482 0.2116977
9.1014433 7.9705153 0.2111741
9.2312965 7.8814883 0.21187221
9.2636385 7.8589139 0.21204673
9.2806358 7.8233299 0.21187221
9.3449793 7.7776556 0.21222126
9.370718 7.7466259 0.21222126
9.39501 7.7171459 0.21222126
9.4114599 7.681272 0.21204673
9.4595375 7.6219859 0.21204673
9.5388393 7.4901686 0.2116977
9.5702085 7.4663115 0.21187221
10.023273 6.8991151 0.21239579
10.096137 6.8099346 0.21257029
10.125791 6.7837453 0.21274483
10.163699 6.7629809 0.21309388
10.176556 6.7255015 0.21291935
10.197633 6.6934996 0.21291935
10.21861 6.6614318 0.21291935
10.247882 6.6347275 0.21309388
10.277083 6.6079092 0.2132684
10.297793 6.5755873 0.2132684
10.318399 6.5432053 0.2132684
10.347364 6.5160866 0.21344292
10.368917 6.4817348 0.21344292
10.396596 6.4562178 0.21361744
10.416829 6.4235215 0.21361744
10.445484 6.3959875 0.21379198
10.465525 6.3631425 0.21379198
10.494024 6.3353968 0.21396649
10.52245 6.3075404 0.21414101
10.550808 6.279563 0.21431555
10.561874 6.2413011 0.21414101
10.581429 6.2080913 0.21414101
10.609522 6.1798472 0.21431555
10.646196 6.1564941 0.21466461
10.665484 6.1230197 0.21466461
10.693353 6.0944352 0.21483912
10.712445 6.060813 0.21483912
10.740152 6.0320225 0.21501364
10.776517 6.0079861 0.2153627
10.795338 5.974103 0.2153627
10.822814 5.9449744 0.21553721
10.850215 5.9157329 0.21571174
10.877542 5.8863721 0.21588627
10.895982 5.8521671 0.21588627
10.923136 5.8226132 0.21606079
10.950211 5.7929454 0.21623531
10.977207 5.763166 0.21640983
10.99526 5.7286482 0.21640983
11.030968 5.7032585 0.21675889
11.057723 5.6731467 0.2169334
11.076476 5.6364436 0.2169334
11.094131 5.601615 0.2169334
11.129552 5.5756936 0.21728246
11.155001 5.5470958 0.21745698
11.17333 5.5100813 0.21745698
11.199568 5.4793429 0.21763149
11.225723 5.448494 0.21780603
11.251793 5.4175401 0.21798055
11.286799 5.3907852 0.21832959
11.312715 5.3595834 0.21850412
11.338547 5.3282661 0.21867865
11.364295 5.2968397 0.21885318
11.389954 5.2653093 0.2190277
11.415526 5.2336698 0.21920222
11.441013 5.2019215 0.21937674
11.466415 5.1700592 0.21955127
11.491731 5.1380892 0.2197258
11.516954 5.1060157 0.21990031
11.54209 5.0738349 0.22007483
11.567139 5.0415463 0.22024937
11.602152 5.0110865 0.2205984
11.626162 4.9805737 0.22077294
11.650953 4.9479351 0.22094746
11.684869 4.9190693 0.2212965
11.709492 4.8861885 0.22147103
11.743265 4.8570175 0.22182009
11.767718 4.8238902 0.22199459
11.792077 4.7906623 0.22216913
11.816343 4.7573295 0.22234365
11.840519 4.7238855 0.22251818
11.873897 4.6940179 0.22286722
11.897896 4.6603351 0.22304174
11.921799 4.6265535 0.22321628
11.964271 4.5998435 0.22373985
11.988008 4.5657892 0.22391437
12.011646 4.5316372 0.22408889
12.044557 4.5008755 0.22443794
12.068011 4.4664927 0.22461247
12.10076 4.4354362 0.2249615
12.133432 4.4042182 0.22531056
12.14797 4.3639607 0.22531056
12.189882 4.335824 0.22583413
12.204192 4.2953792 0.22583413
12.245951 4.2668891 0.2263577
12.268009 4.2337942 0.22653222
12.299439 4.2038455 0.22688128
12.322055 4.1683912 0.22705579
12.354052 4.1360106 0.22740485
12.377192 4.0981598 0.22757937
12.40901 4.0654778 0.22792841
12.440742 4.0326424 0.22827747
12.471693 4.0018239 0.22862652
12.503957 3.9664874 0.22897556
12.535435 3.9331744 0.22932461
12.557281 3.8967335 0.22949913
12.598135 3.8660667 0.2300227
12.619785 3.8293753 0.23019724
12.650908 3.7954528 0.23054628
12.672354 3.7585356 0.2307208
12.70329 3.724328 0.23106986
12.734134 3.6899691 0.23141889
12.774499 3.6582057 0.23194247
12.79555 3.620774 0.232117
12.82612 3.5859447 0.23246604
12.856599 3.5509529 0.2328151
12.886982 3.5158107 0.23316415
12.917272 3.4805129 0.23351319
12.966792 3.4501951 0.2342113
12.987236 3.4119844 0.2343858
13.007571 3.3736737 0.23456034
13.07698 3.3041301 0.23543295
13.106698 3.2678652 0.235782
13.165444 3.2386174 0.23665462
13.224137 3.2090266 0.23752724
13.253601 3.1721232 0.2378763
13.273232 3.1327693 0.23805082
13.292747 3.0933173 0.23822534
13.331635 3.0582509 0.23874891
13.360682 3.0207593 0.23909797
13.389624 2.9831216 0.239447
13.418462 2.9453323 0.23979606
13.447194 2.9073842 0.2401451
13.4856 2.8713737 0.24066868
13.514124 2.8330989 0.24101773
13.655585 2.6370707 0.24276297
13.693726 2.5973585 0.24328654
13.721477 2.5579932 0.24363559
13.75851 2.5226748 0.24415916
13.795887 2.4847584 0.24468273
13.833161 2.4466319 0.2452063
13.850211 2.4072855 0.24538082
13.887274 2.368808 0.2459044
13.914371 2.3284647 0.24625345
13.961482 2.2887831 0.24695154
13.988347 2.2480862 0.2473006
14.024971 2.208792 0.24782416
14.051603 2.1677718 0.24817321
14.088004 2.128093 0.24869679
14.114402 2.0867512 0.24904583
14.160469 2.0481269 0.24974392
14.186635 2.0064268 0.25009298
14.22258 1.9659581 0.25061655
14.258412 1.9252766 0.25114012
14.294128 1.8843962 0.25166371
14.329728 1.8433104 0.25218728
14.365211 1.8020124 0.25271085
14.400574 1.7605166 0.25323442
14.425892 1.7176274 0.25358346
14.451079 1.6746032 0.25393251
